# .PCD v0.7 - Point Cloud Data file format
VERSION 0.7
FIELDS x y z intensity
SIZE 4 4 4 4
TYPE F F F F
COUNT 1 1 1 1
WIDTH 1361
HEIGHT 1
VIEWPOINT 0 0 0 1 0 0 0
POINTS 1361
DATA ascii
1.2018639 0.53460211 -0.30368391 31
1.6005356 0.71160018 0.091797277 1
1.3346914 0.59340554 -0.2839238 25
1.5767292 0.70068717 0.15095374 1
1.3648043 0.60622406 -0.23652895 31
1.6165562 0.71770948 0.21717119 1
1.400761 0.62160939 -0.18816628 20
1.6197275 0.71844172 0.28064346 1
1.4224101 0.63092017 -0.13613726 23
1.6224761 0.71932113 0.34498268 1
1.4772357 0.65462065 -0.084679581 7
1.4753146 0.65346223 0.37251896 2
1.5030371 0.66542667 -0.028691756 2
2.0227716 0.89510214 0.59269565 4
1.2125503 0.53479916 -0.35509977 24
1.5553142 0.68565118 0.029669091 1
1.1965896 0.52726012 -0.30188429 31
1.6101973 0.70951045 0.092215963 1
1.3403478 0.59032655 -0.28468704 16
1.630224 0.71765554 0.15583447 1
1.3669122 0.60145593 -0.23652895 31
1.6190512 0.71206343 0.21717119 1
1.3902013 0.61112434 -0.18646011 20
1.6221012 0.7130661 0.28064346 1
1.4319003 0.62915671 -0.13683452 23
1.4575659 0.63982695 -0.083423525 13
1.4597415 0.64047819 0.36801991 3
1.4942482 0.65561837 -0.028482327 4
2.0257289 0.88838887 0.59269565 2
1.2144098 0.53056294 -0.35509977 24
1.5649091 0.6836924 0.029808709 1
1.1983316 0.52328885 -0.30188429 37
1.612664 0.70388579 0.092215963 1
1.3531971 0.5903542 -0.28697675 8
1.6400247 0.71514577 0.15653172 1
1.3688993 0.59691942 -0.23652895 30
1.6687175 0.72731185 0.2235084 1
1.3885803 0.60492551 -0.18597263 20
1.6245805 0.70739913 0.28064346 1
1.4267801 0.62097448 -0.13613726 23
1.6921397 0.73646641 0.35872093 1
1.4523536 0.63180339 -0.083004832 17
1.4904515 0.64806652 0.37521836 3
1.4855236 0.64561641 -0.028272899 11
2.0713425 0.89978665 0.60511893 1
1.2019801 0.5203923 -0.35095865 25
1.5434283 0.66790104 0.029354947 2
1.2037278 0.52065086 -0.30278412 37
1.5893253 0.68743408 0.09075056 1
1.4290318 0.61780518 -0.30262309 8
1.6497029 0.71286494 0.15722896 1
1.3836685 0.59762114 -0.23871902 21
1.6712463 0.72148204 0.2235084 1
1.3997968 0.60400671 -0.18719132 20
1.6269172 0.70200825 0.28064346 1
1.4215137 0.61308318 -0.13544002 22
1.6658543 0.71811986 0.35261503 1
1.4508817 0.62514877 -0.082795486 20
1.5034432 0.64748514 0.37791777 4
1.4821467 0.63831341 -0.028168185 15
2.0246308 0.87152517 0.59062505 1
1.2037891 0.51619369 -0.35095865 25
1.525418 0.65411055 0.028970996 5
1.2108215 0.51895899 -0.30413383 43
1.6045666 0.68738705 0.091483258 2
1.5105896 0.646815 -0.31941426 13
1.6411908 0.70239878 0.15618308 1
1.4019873 0.60002416 -0.24153483 12
1.7028313 0.72842813 0.22740822 1
1.407268 0.60170239 -0.18792254 18
1.6584209 0.70874584 0.28564936 1
1.4163162 0.60498714 -0.13474278 25
1.6862808 0.72030401 0.35643122 1
1.4566208 0.62190217 -0.083004832 20
1.5073743 0.64326113 0.37836766 4
1.4843657 0.63313615 -0.028168185 17
2.0454319 0.87202829 0.59580147 1
1.2090501 0.51371002 -0.35199389 24
1.5074455 0.64018387 0.028587043 12
1.2018627 0.51016033 -0.3014344 43
1.5793768 0.67008114 0.089913182 2
1.5524869 0.65867257 -0.32780987 20
1.6214999 0.6876179 0.15409136 2
1.4677294 0.62210739 -0.25248525 9
1.6578399 0.70234668 0.22107102 1
1.4166716 0.5998829 -0.18889751 10
1.6317786 0.69063312 0.28064346 1
1.4201494 0.60106331 -0.1349171 26
1.6634713 0.70370448 0.35108855 1
1.4422264 0.60981369 -0.082062788 23
1.5508962 0.65544325 0.38871542 2
1.4736722 0.62250358 -0.02792385 12
1.9772741 0.83482677 0.57509595 1
1.2108361 0.5094862 -0.35199389 24
1.5041411 0.6325919 0.028482327 15
1.1928573 0.50143123 -0.29873499 42
1.5596104 0.65527982 0.088657118 7
1.5746866 0.66161418 -0.33200768 32
1.6312381 0.6850397 0.1547886 4
1.5482134 0.64985561 -0.26593861 17
1.6566205 0.69501901 0.22058353 1
1.4645232 0.61412585 -0.19499096 5
1.6523978 0.69256914 0.28377217 1
1.4332639 0.60072362 -0.13596295 19
1.6985115 0.71154833 0.35795769 1
1.4461883 0.60554731 -0.082167462 22
1.5549722 0.65077829 0.38916534 2
1.4832152 0.62044281 -0.028063469 13
1.217957 0.50748527 -0.35354683 27
1.5063399 0.62733787 0.028482327 15
1.1999978 0.49951071 -0.30008471 46
1.5563563 0.64752972 0.088343106 11
1.5806118 0.65762132 -0.33277091 47
1.6281002 0.67704678 0.15426566 3
1.5942506 0.66264313 -0.27344745 30
1.681035 0.6983707 0.2235084 1
1.5528239 0.6447897 -0.20644669 12
1.687646 0.70042652 0.2894038 1
1.4501789 0.60157347 -0.13735744 8
1.6864778 0.6995967 0.35490477 1
1.4501383 0.60126078 -0.082272127 21
1.5752373 0.6528067 0.39366436 1
1.4742873 0.61066973 -0.02785404 12
1.2019492 0.49565327 -0.34837046 27
1.5085208 0.62207562 0.028482327 16
1.2107425 0.49903217 -0.30233422 52
1.5512202 0.6390503 0.087924413 13
1.5793808 0.65032911 -0.33200768 71
1.5863521 0.6528759 0.15008219 4
1.6350323 0.6725769 -0.28001773 28
1.6724474 0.68796778 0.22204597 2
1.6046365 0.65974611 -0.21302763 18
1.6791177 0.69002646 0.28752658 1
1.4909724 0.61240476 -0.14101799 6
1.7108244 0.70235831 0.35948417 1
1.463419 0.60049057 -0.082900167 16
1.7723423 0.72689098 0.44225377 1
1.4727095 0.60400254 -0.027784232 12
1.1965179 0.48853394 -0.34629989 25
1.495979 0.61049819 0.028203089 16
1.2089546 0.49311885 -0.3014344 45
1.5480038 0.63109809 0.087610394 12
1.5943671 0.64999974 -0.33467901 80
1.5701703 0.63981634 0.14833906 11
1.6373702 0.66686511 -0.28001773 57
1.6455405 0.6698578 0.21814615 4
1.6419795 0.66807514 -0.21765867 14
1.6889552 0.68684375 0.28877807 1
1.594723 0.64819825 -0.15060511 12
1.7169034 0.69786024 0.3602474 1
1.480309 0.60139287 -0.083737537 12
1.8904252 0.76762193 0.47104752 1
1.4749136 0.59860033 -0.027784232 12
1.2144213 0.4906581 -0.35095865 24
1.498101 0.60527217 0.028203089 15
1.1980195 0.48378882 -0.2982851 50
1.5539013 0.62718618 0.087819748 13
1.5985593 0.64488655 -0.3350606 91
1.5743526 0.63480258 0.14851339 11
1.6452999 0.66307491 -0.28095633 100
1.6312977 0.65743184 0.2159525 5
1.6645561 0.67049772 -0.22033979 48
1.6766827 0.67504233 0.28627509 1
1.645033 0.66196638 -0.15513723 20
1.7158065 0.69009793 0.35948417 1
1.5084475 0.60639143 -0.08520294 6
1.8932258 0.76068842 0.47104752 1
1.4936936 0.60015845 -0.028098376 8
1.2160418 0.48662788 -0.35095865 25
1.5039179 0.60152465 0.028272899 15
1.1942725 0.4774335 -0.29693538 52
1.5318633 0.61239195 0.086459011 11
1.5970429 0.63812464 -0.33429739 91
1.5708983 0.62736106 0.14799045 11
1.6364818 0.65322173 -0.27907911 97
1.6040825 0.63996369 0.21205269 11
1.6631986 0.66321307 -0.21985231 71
1.6972607 0.6767956 0.2894038 3
1.6934892 0.67494917 -0.159495 36
1.7253811 0.68731004 0.36101064 1
1.6032292 0.63832712 -0.090436541 9
1.8957379 0.75440645 0.47104752 1
1.5235453 0.6062929 -0.028621947 5
1.2159365 0.48166946 -0.35044101 27
1.5077634 0.59727097 0.028307803 15
1.201285 0.47562239 -0.2982851 58
1.5321347 0.60630572 0.086354338 11
1.5883065 0.62821466 -0.33200768 91
1.5656674 0.61894351 0.1472932 12
1.6423134 0.64924335 -0.27970487 91
1.6117343 0.63682956 0.21278389 11
1.6653887 0.6576944 -0.21985231 82
1.6536775 0.65273488 0.28158206 5
1.7069554 0.67342037 -0.16054088 56
1.7294772 0.68230551 0.36139226 2
1.6480716 0.64985836 -0.092843994 12
1.8982294 0.7481153 0.47104752 1
1.6372856 0.64494413 -0.030716237 8
1.9970801 0.78626949 0.57509595 1
1.20314 0.4719902 -0.34629989 27
1.5265945 0.59857357 0.028621947 6
1.2029381 0.47142586 -0.2982851 58
1.5379609 0.60241103 0.086563677 11
1.5903811 0.62294376 -0.33200768 91
1.5677111 0.61374843 0.1472932 13
1.6408905 0.6420666 -0.27907911 91
1.6065522 0.62830788 0.21180893 11
1.6750698 0.65476745 -0.22082727 82
1.6301868 0.63689429 0.27720189 11
1.6851685 0.65803695 -0.15827483 53
1.7373344 0.67840707 0.36253712 2
1.6968446 0.66225505 -0.095460795 5
1.9008293 0.74148422 0.47104752 1
1.6767886 0.65375316 -0.03141433 11
1.9098125 0.74422145 0.54921407 1
1.2048618 0.46757755 -0.34629989 27
1.5622308 0.60626382 0.029250234 5
1.2063928 0.46792951 -0.29873499 54
1.5363301 0.59559464 0.086354338 7
1.5853313 0.61427289 -0.3304812 91
1.568092 0.60727918 0.1471189 11
1.6321795 0.63177007 -0.27720189 97
1.6142896 0.62484545 0.21254015 12
1.6699399 0.64605099 -0.21985231 73
1.6360846 0.632626 0.27782765 11
1.6781633 0.64855903 -0.15740328 54
1.7031819 0.65788633 0.35490477 5
1.6936706 0.65387368 -0.095146775 3
1.8417192 0.71066028 0.45575082 1
1.697717 0.65509444 -0.031763379 4
1.8222762 0.70279258 0.52333212 1
1.2046832 0.46267599 -0.34578225 28
1.6745882 0.6428144 0.031309616 10
1.2008222 0.46071219 -0.29693538 60
1.5607764 0.59881365 0.087610394 4
1.6021304 0.61435896 -0.33353412 86
1.5627606 0.59894925 0.14642164 11
1.6251514 0.62253612 -0.27563757 91
1.5961764 0.61111742 0.20985903 12
1.6760044 0.64134526 -0.22033979 73
1.6419729 0.6283226 0.27845338 11
1.6859998 0.6448319 -0.1579262 53
1.6687911 0.63791728 0.3472724 11
1.7668405 0.6750446 -0.099124312 1
1.7895732 0.68337101 0.44225377 1
1.709334 0.6527307 -0.031937905 2
1.8247181 0.69642776 0.52333212 1
1.2117084 0.46052665 -0.34733516 30
1.7140957 0.65146595 0.032007713 6
1.1950563 0.45395976 -0.29513577 62
1.588998 0.60328698 0.089075804 4
1.6005943 0.6073693 -0.33277091 89
1.5797449 0.59914321 0.14781614 8
1.6161247 0.61294079 -0.27376035 72
1.6000502 0.60652488 0.21010277 11
1.6669843 0.63156366 -0.21887736 70
1.644156 0.62258762 0.27845338 11
1.6882401 0.63894391 -0.1579262 53
1.6690609 0.63168526 0.34689078 12
2.9291456 1.1080003 -0.16412558 60
1.6933968 0.64021993 0.41795903 4
1.7864258 0.675035 -0.033334095 1
1.7440041 0.65865642 0.49952078 2
1.2132288 0.45650622 -0.34733516 30
1.7500499 0.65814924 0.032636002 3
1.2075787 0.45389909 -0.2978352 62
1.7051445 0.6405822 0.095460795 2
1.5878967 0.59653503 -0.32971796 79
1.5985104 0.60020399 0.14938495 4
1.5535245 0.58300352 -0.26280993 58
1.605875 0.60232979 0.21059024 9
1.6617435 0.62295407 -0.21790241 70
1.6352205 0.61268568 0.27657616 11
1.6922154 0.63404059 -0.15810052 54
1.6786102 0.62860888 0.34841725 11
2.9442186 1.1019703 -0.16475362 61
1.7120484 0.64044958 0.42200816 11
1.7661986 0.66000366 0.50521481 4
1.2111942 0.45092073 -0.34629989 30
1.7617073 0.65552366 0.032810524 2
1.2091558 0.44968075 -0.2978352 60
1.7635336 0.6555025 0.098600946 2
1.5862888 0.58962095 -0.32895473 79
1.6192725 0.60155928 0.15112805 4
1.5444391 0.57345116 -0.26093271 60
1.6191342 0.60086483 0.21205269 6
1.6657689 0.61784035 -0.21814615 67
1.6280885 0.60354042 0.27501184 11
1.6720006 0.61981887 -0.15600878 48
1.6771123 0.62138182 0.34765401 11
2.9386826 1.0882177 -0.16423026 65
1.717929 0.63582188 0.42290798 11
2.9857833 1.1044761 -0.055568464 53
1.7431241 0.64445525 0.49796787 8
1.210948 0.44602209 -0.34578225 29
3.0363054 1.1177462 0.056475986 43
1.210718 0.44545755 -0.2978352 62
1.7845564 0.6562354 0.099647671 2
1.566226 0.57594872 -0.3243753 45
1.7354376 0.63782912 0.16176106 2
1.5390143 0.56533241 -0.25968125 66
1.6379931 0.60136628 0.21424633 3
1.67537 0.61475682 -0.2191211 65
1.6338943 0.59921432 0.27563757 9
1.6723905 0.61300123 -0.15583447 44
1.6682112 0.61146939 0.3453643 11
2.9462137 1.0793278 -0.16443959 63
1.7237976 0.63116175 0.42380777 11
2.9914985 1.0947335 -0.055603366 56
1.7417343 0.63703984 0.4969326 12
1.2107593 0.44092 -0.34526464 31
3.043947 1.1085086 0.056545798 41
1.1957846 0.43523031 -0.29378608 68
1.5277344 0.55544645 -0.31597972 27
1.8164127 0.66004288 0.16908213 3
1.5299358 0.55564225 -0.25780404 66
1.7035211 0.61868501 0.22253343 2
1.6700416 0.60619605 -0.21814615 67
1.6601166 0.6022647 0.27970487 5
1.6745201 0.60715932 -0.15583447 42
1.6630578 0.6026758 0.34383783 10
2.937005 1.0637603 -0.1637069 70
1.7242671 0.62417573 0.42335787 11
2.9934218 1.0836031 -0.055568464 52
1.7421305 0.63029933 0.49641496 18
1.2141086 0.43734533 -0.34578225 28
3.0461075 1.0966678 0.056510892 49
1.1955382 0.43018445 -0.29333615 70
3.1217146 1.1226555 0.17386007 68
1.5259693 0.5487811 -0.31521648 24
1.8412046 0.66178668 0.17117387 2
1.5318662 0.55029798 -0.25780404 66
1.8290865 0.65670919 0.23862019 2
1.6647784 0.5973894 -0.21717119 67
1.6790473 0.6021781 0.28252068 4
1.6991342 0.60938209 -0.1579262 44
1.6651516 0.59686655 0.34383783 10
2.9312983 1.0501357 -0.16318353 65
1.7080884 0.61158437 0.41885886 11
2.9917247 1.0706037 -0.05546375 51
1.7498863 0.62586117 0.49796787 16
1.2083485 0.43051144 -0.3437117 28
3.0461497 1.0846857 0.056441084 51
1.1988686 0.42666176 -0.29378608 76
3.1199689 1.1097445 0.17354605 70
1.5056787 0.5355562 -0.31063706 25
1.5449461 0.54891503 -0.25968125 64
1.8725219 0.66493487 0.24398245 2
1.6668535 0.59157419 -0.21717119 65
1.7593319 0.62404853 0.29566118 3
1.6881069 0.59878445 -0.15670602 42
1.6875795 0.59826678 0.34803563 4
2.933064 1.0392294 -0.16307886 62
1.706539 0.60431677 0.41795903 11
2.9860177 1.0568188 -0.055289224 52
1.7465963 0.61781675 0.49641496 14
1.2062 0.4250066 -0.34267643 28
3.0499177 1.0740453 0.056441084 51
1.2003503 0.42247516 -0.29378608 76
3.1236315 1.099393 0.17354605 70
1.5001311 0.52769095 -0.30911061 26
3.1821852 1.1187516 0.29510933 50
1.543125 0.54221022 -0.25905553 64
1.8898156 0.66365588 0.24593236 1
1.6650605 0.58472753 -0.21668372 65
1.8732257 0.65746272 0.31443331 3
1.6939464 0.59420836 -0.15705465 42
1.7341224 0.60796064 0.35719445 2
2.9423287 1.0309654 -0.16339287 65
1.7011771 0.59607714 0.41615945 8
2.9876184 1.0462507 -0.055254318 53
1.7468123 0.61138278 0.49589732 12
1.2003059 0.41846076 -0.34060588 28
3.0421319 1.0599798 0.056231655 54
1.2054255 0.4197737 -0.29468587 76
3.1310327 1.0903413 0.17375539 70
1.5129975 0.52658564 -0.31140029 25
3.174587 1.1042646 0.29406345 55
1.5281221 0.53125167 -0.25623968 63
1.6688653 0.57985467 -0.21692745 62
1.9239136 0.66809499 0.32256791 3
1.6846143 0.58466774 -0.15600878 36
1.8158867 0.62987256 0.37360403 2
2.9457316 1.0212017 -0.16339287 63
1.728922 0.59936833 0.42245808 4
2.9948506 1.0376461 -0.055324126 53
1.7397025 0.60242647 0.49330914 11
1.2089922 0.41699737 -0.34267643 29
3.0399587 1.0479299 0.056126937 53
1.2012833 0.41387001 -0.29333615 82
3.131043 1.0781041 0.17354605 67
1.5185392 0.52257913 -0.31216353 24
3.181999 1.0950301 0.29441211 52
1.5298753 0.52618164 -0.25623968 61
3.2439396 1.1150781 0.42118049 44
1.6840209 0.57854086 -0.21863361 54
1.686645 0.57878333 -0.15600878 36
1.907214 0.65410101 0.3919217 2
2.9379413 1.0070294 -0.16276483 65
1.7863067 0.6122871 0.43595514 2
2.9946713 1.025889 -0.055254318 53
1.7436227 0.59697539 0.49382678 10
1.2159981 0.41443327 -0.34422934 30
3.0475655 1.0380697 0.056196753 53
1.1972579 0.40758055 -0.29198647 76
3.1217372 1.0621184 0.17281334 75
1.5241619 0.51827359 -0.31292677 24
3.185991 1.0833594 0.29441211 53
1.5280529 0.51929992 -0.25561395 63
3.2423656 1.1012663 0.42044926 47
1.6710922 0.56725955 -0.21668372 54
3.3353772 1.1315593 0.55784535 42
1.7000761 0.57643658 -0.15705465 39
1.9542239 0.662229 0.40108052 2
2.9378295 0.99497247 -0.1625555 63
1.895593 0.64199191 0.46204948 2
3.0003052 1.0155478 -0.055289224 54
1.7732484 0.59986693 0.50159132 4
1.2138472 0.40874091 -0.34319407 31
3.0475588 1.0256178 0.056126937 53
1.1932027 0.40132502 -0.29063675 72
3.1064956 1.044847 0.17176662 66
1.514796 0.50919712 -0.31063706 24
3.1937177 1.0729445 0.29476073 53
1.5336915 0.51495224 -0.25623968 61
3.2539079 1.0919019 0.42142424 49
1.6787077 0.56331778 -0.21741492 49
3.3130863 1.111117 0.55346519 40
1.6869653 0.56543285 -0.15566015 34
2.9374967 0.98344398 -0.16234615 65
1.9735875 0.66073704 0.48049545 2
2.9848685 0.99872267 -0.054940179 55
1.7753315 0.59367383 0.50159132 3
1.1987 0.39921981 -0.33853534 28
3.0509434 1.0155053 0.056126937 54
1.2056216 0.40105692 -0.29333615 70
3.1194189 1.0376925 0.17228998 70
1.5090246 0.50169319 -0.30911061 25
3.1707876 1.0535517 0.29232034 55
1.5353906 0.50986379 -0.25623968 63
3.2650473 1.0836058 0.42239916 50
1.6824509 0.55837274 -0.21765867 25
3.3092535 1.0976357 0.55221373 41
1.6812662 0.55732822 -0.15496291 34
3.3918259 1.12371 0.69454479 43
2.940742 0.97369665 -0.16234615 63
1.9813179 0.65602577 0.48184517 2
2.9824684 0.98693502 -0.054835461 58
1.7993004 0.59506196 0.50780302 2
1.203687 0.39645088 -0.33957058 28
3.0428975 1.0016315 0.055917513 52
1.2050936 0.39644802 -0.29288626 70
3.1268167 1.0280459 0.17249933 70
1.5106798 0.49668664 -0.30911061 25
3.1780496 1.0442759 0.292669 53
1.5258125 0.5010711 -0.25436246 61
3.2629642 1.0709161 0.42166796 48
1.7089102 0.5605399 -0.22082727 8
3.3168192 1.0873075 0.55283946 40
1.6775212 0.54959553 -0.15443997 29
3.3955336 1.1124569 0.69454479 49
2.9477508 0.96518302 -0.1625555 65
2.9915969 0.97838366 -0.054940179 54
1.812384 0.59237903 0.51090884 2
1.2088062 0.39323205 -0.34060588 28
3.0349653 0.98729283 0.055708081 54
1.1990573 0.38982862 -0.29108664 82
3.1341856 1.0183585 0.17270868 75
1.519959 0.49357209 -0.31063706 25
3.1742754 1.0301597 0.29197174 55
1.5238807 0.49425685 -0.25373673 61
3.2534649 1.0552318 0.41996178 49
1.7448469 0.56558961 -0.22521456 9
3.3205941 1.0757236 0.55283946 40
1.6794297 0.54373604 -0.15443997 30
3.3883812 1.096377 0.69225508 51
2.9436672 0.95191354 -0.16213681 75
3.4860947 1.1266501 0.84581596 44
2.9930911 0.96731925 -0.054905269 58
1.8512077 0.59792393 0.52126157 2
1.2101716 0.38900977 -0.34060588 27
3.0461791 0.97860813 0.055847701 54
1.1949117 0.3836444 -0.28973696 84
3.1036651 0.99588096 0.17082457 66
1.5272808 0.49006253 -0.31178191 25
3.185441 1.0215075 0.292669 52
1.5218343 0.48772901 -0.25311098 61
3.2421865 1.0384567 0.41801187 49
1.7506896 0.56040055 -0.22570205 11
3.3282769 1.0647503 0.55346519 41
1.6870102 0.53969204 -0.15496291 28
3.3959272 1.085739 0.69301832 49
2.931752 0.9367699 -0.16129944 63
3.4732985 1.1091399 0.84176683 42
2.9985216 0.95695114 -0.054940179 55
1.8497055 0.58996117 0.5202263 2
1.2188871 0.38712192 -0.34267643 28
3.0514824 0.96857476 0.055882607 57
1.1925285 0.3782922 -0.28883713 76
3.116642 0.98805815 0.17134793 70
1.5177536 0.48116812 -0.3094922 25
3.1889873 1.0103827 0.292669 55
1.5272942 0.48360613 -0.25373673 55
3.2495773 1.0283301 0.41849938 49
1.782918 0.56386381 -0.22960186 14
3.3131385 1.047172 0.55033648 40
1.6945832 0.5356009 -0.15548584 24
3.3996968 1.0738776 0.69301832 49
2.938813 0.9277336 -0.16150878 65
3.4697156 1.0946629 0.83996725 46
2.9846795 0.94106585 -0.054626033 58
1.8738641 0.59046859 0.526438 3
1.2054849 0.37823835 -0.33853534 27
3.0433965 0.95432627 0.055673175 59
1.1994205 0.37587571 -0.29018685 82
3.121978 0.97777063 0.17145261 80
1.5081828 0.47234696 -0.30720252 26
3.1734803 0.99329251 0.29092586 55
1.5252022 0.47709274 -0.25311098 50
3.2569361 1.0181659 0.41898686 50
1.7943494 0.56059617 -0.23082055 19
3.30546 1.0320688 0.54845929 40
1.6945405 0.52908897 -0.15531152 11
3.4034245 1.0620046 0.69301832 51
2.9477539 0.91925257 -0.1618228 70
3.4716554 1.0819638 0.8395173 44
2.986037 0.93004769 -0.05459113 55
1.8869812 0.58736843 0.52954376 4
1.2031074 0.37288395 -0.33750004 29
3.0371583 0.94073945 0.055498652 54
1.2025867 0.37226316 -0.29063675 80
3.1120157 0.96273404 0.17071991 70
1.5135735 0.46823955 -0.30796573 25
3.1693146 0.97985417 0.29022861 56
1.5268581 0.4717662 -0.25311098 49
3.2528837 1.0044472 0.41801187 49
1.8133669 0.55959696 -0.2330142 22
3.3128173 1.0216893 0.54908502 40
1.6963769 0.52317107 -0.15531152 6
3.3921018 1.0454909 0.68996537 49
2.9375834 0.90484101 -0.16109009 63
3.479135 1.0709881 0.84041709 44
2.9854429 0.91844195 -0.054521319 55
1.9000995 0.58418381 0.53264964 4
1.211661 0.3713671 -0.33957058 28
3.0439231 0.93236375 0.055568464 55
1.1925699 0.3650611 -0.28793734 76
3.1169348 0.95353758 0.17082457 66
1.5225465 0.46577984 -0.3094922 25
3.1761878 0.97105819 0.29057723 55
1.5302218 0.46754462 -0.25342387 52
3.2408347 0.989586 0.416062 50
1.8151158 0.55389768 -0.2330142 16
3.3197892 1.0124298 0.54971075 39
1.7132579 0.52248901 -0.15670602 2
3.3841012 1.0313957 0.68767565 49
2.9385009 0.8950265 -0.16098543 70
3.4768906 1.0583477 0.83906746 42
2.9902263 0.90964097 -0.054556224 58
3.5857482 1.0901178 1.0042179 5
1.2166481 0.36825439 -0.34060588 29
3.0375888 0.91883862 0.055393942 59
1.1919717 0.36033183 -0.28748745 70
3.1240683 0.94380605 0.17103392 75
1.5316807 0.462733 -0.31101868 24
3.1833725 0.96111768 0.29092586 56
1.5375181 0.46391174 -0.25436246 48
3.2404683 0.97712022 0.41557449 52
1.7999321 0.542404 -0.23082055 12
3.3195207 0.99969536 0.54908502 40
3.387681 1.0195757 0.68767565 51
2.9358692 0.88303864 -0.1606714 65
3.4730978 1.0439631 0.83726782 46
2.9972141 0.90034741 -0.054626033 58
1.9427875 0.58323461 0.54352003 1
1.2142239 0.36289966 -0.33957058 28
3.0465257 0.90994585 0.055498652 55
1.1988242 0.35784069 -0.28883713 76
3.1177733 0.93004274 0.17051056 70
1.5163544 0.45233384 -0.30758414 27
3.1828897 0.94886059 0.29057723 56
1.535342 0.45741358 -0.25373673 50
3.2457614 0.96637166 0.41581824 54
1.7980094 0.53498501 -0.23033307 12
3.3116295 0.98472291 0.54720783 47
2.9028182 0.86316162 -0.26495346 87
3.3912189 1.0077466 0.68767565 51
2.9446778 0.87449008 -0.16098543 70
3.46738 1.0290601 0.83501828 44
2.975415 0.88248968 -0.05417227 55
3.5469661 1.0513331 0.99127698 20
1.2117777 0.35756525 -0.33853534 27
3.047766 0.89873952 0.05546375 57
1.2038044 0.35475582 -0.28973696 80
3.1190853 0.91858888 0.17040588 75
1.5122743 0.44537362 -0.30643925 26
3.1747146 0.93436843 0.28953138 55
1.5464047 0.45483875 -0.25530109 55
3.2472105 0.95447528 0.41557449 52
1.8017707 0.52926451 -0.23057681 10
3.303674 0.96981937 0.54533058 47
2.8656671 0.84123904 -0.2612929 65
3.3966 0.99645472 0.6880573 55
2.9438791 0.86308128 -0.16077606 67
3.4597304 1.0136638 0.8323189 44
2.9842348 0.87378317 -0.054276984 58
3.5339277 1.0340617 0.98661828 31
1.2111635 0.35279313 -0.3380177 27
3.0355239 0.88362628 0.05518451 57
1.2050356 0.35055128 -0.28973696 76
3.1107657 0.90435112 0.16977786 66
1.5175902 0.4411886 -0.30720252 26
3.1703031 0.92105967 0.28883412 55
1.5328069 0.44503137 -0.25279811 55
3.2467098 0.94202745 0.41508701 50
1.8360184 0.53237122 -0.23472038 8
3.3146288 0.9604798 0.5465821 47
2.870645 0.83128363 -0.26146722 70
3.3849716 0.98022264 0.68500435 53
2.9430363 0.8516916 -0.16056673 65
3.476352 1.0053697 0.83546823 46
2.9853458 0.86280489 -0.054242078 55
3.543083 1.0233303 0.9881711 52
1.2124486 0.34835133 -0.3380177 27
3.0366681 0.87247193 0.055149604 54
1.1950133 0.34311622 -0.28703755 76
3.129262 0.89789301 0.17061524 75
1.519197 0.43562299 -0.30720252 26
3.1794038 0.91107935 0.28935707 57
1.5344275 0.43941072 -0.25279811 52
3.2385278 0.92741019 0.41362458 50
1.8569504 0.53142023 -0.23715776 5
3.3179612 0.9489044 0.5465821 45
2.8754451 0.82180631 -0.26164153 73
3.3753271 0.96403617 0.68233299 51
2.9384568 0.83870423 -0.16014804 70
3.4781392 0.99208766 0.83501828 48
2.9941082 0.85402507 -0.054346792 58
3.5503495 1.0120146 0.98920643 57
1.2136571 0.34411722 -0.3380177 27
3.041769 0.86188197 0.05518451 57
1.192513 0.33767182 -0.28613773 76
3.1189251 0.88315439 0.16988252 70
1.5244863 0.43138677 -0.30796573 26
3.1863987 0.90106064 0.28970569 57
1.5359521 0.43405145 -0.25279811 57
3.2380841 0.91445583 0.41313711 52
1.8684379 0.52730685 -0.23837645 2
3.3098462 0.93409824 0.54470485 46
2.8782964 0.81176329 -0.26164153 73
3.3786714 0.95224887 0.68233299 51
2.9336762 0.82627672 -0.15972935 70
3.4646988 0.97518778 0.83096921 46
2.9932215 0.842484 -0.054276984 62
3.5520008 0.99909306 0.98868877 63
1.2111301 0.33883739 -0.3369824 27
3.0388336 0.85017323 0.055079795 54
1.1973796 0.33476508 -0.28703755 76
3.1162181 0.87065035 0.16956852 75
1.5127465 0.42236656 -0.30529439 28
3.1837676 0.88832527 0.28918275 56
1.529772 0.42683241 -0.25154665 48
3.2430112 0.90424526 0.41338086 54
2.814826 0.78432548 -0.35878339 70
3.3054752 0.92041868 0.5434534 45
2.8868706 0.80331421 -0.26216447 75
3.3912678 0.94367015 0.68424112 53
2.942173 0.81814969 -0.16004337 65
3.4547701 0.9600414 0.82781988 44
2.976876 0.82668054 -0.053927936 62
3.5629127 0.98875356 0.99075931 63
1.2103848 0.33430517 -0.33646476 27
3.0437107 0.84009176 0.055114701 57
1.1985408 0.33058369 -0.28703755 76
3.1210132 0.86084348 0.16967319 70
1.5141387 0.41734809 -0.30529439 28
3.1751714 0.8745873 0.2881369 53
1.5445845 0.42515996 -0.25373673 42
3.2518902 0.89449811 0.41411206 52
2.8290312 0.77765119 -0.36024579 74
3.3085093 0.90945137 0.5434534 45
2.877991 0.79057056 -0.26111859 70
3.3945413 0.93182576 0.68424112 53
2.9469371 0.80840218 -0.16014804 70
3.4618587 0.94900739 0.82871968 44
2.983458 0.81786233 -0.053997744 62
3.5512667 0.97284883 0.98661828 61
1.2059526 0.32855493 -0.33491185 27
3.0406909 0.82841897 0.055009987 54
1.2015109 0.32711893 -0.28748745 82
3.1220725 0.8494187 0.16956852 80
1.5193752 0.41309071 -0.30605766 28
3.1705136 0.8614096 0.28743961 53
1.5288296 0.41537383 -0.25092092 39
3.2471752 0.88162965 0.41313711 52
2.8315942 0.76826602 -0.36024579 77
3.3078508 0.89686388 0.54282767 45
2.8672719 0.77687174 -0.25989842 65
3.3767684 0.91491705 0.68004328 51
2.9496014 0.79862589 -0.16014804 70
3.4725113 0.93955714 0.83051926 48
2.9882255 0.80796427 -0.05403265 69
3.5434508 0.95742399 0.9835124 61
1.2163635 0.32706183 -0.33750004 28
3.0377707 0.81624234 0.054905269 57
1.1988814 0.32191187 -0.28658766 80
3.1173022 0.83644575 0.16914983 66
1.5207368 0.40804958 -0.30605766 30
3.1695037 0.84985965 0.28709102 55
1.5283622 0.40952304 -0.25060806 37
3.2387278 0.86720961 0.41167468 49
2.8342586 0.75837785 -0.36024579 81
3.3185945 0.88735193 0.54407912 46
2.8757405 0.76840192 -0.26042137 67
3.3723543 0.90109777 0.67851686 49
2.9388638 0.78471905 -0.15941535 63
3.4738872 0.92692667 0.83006936 46
2.99296 0.79804283 -0.054067552 58
3.5505044 0.94604468 0.98454767 61
1.2212892 0.32359076 -0.33853534 28
3.0386686 0.80512065 0.054870363 54
1.194346 0.31622946 -0.28523794 82
3.1221337 0.82606924 0.1692545 85
1.5184262 0.40146896 -0.30529439 31
3.1764498 0.83925575 0.28743961 55
1.5298527 0.40391889 -0.25060806 37
3.2340579 0.85387111 0.41069973 52
2.8292112 0.74645346 -0.35927087 81
3.3140309 0.87375039 0.54282767 45
2.8784056 0.75835824 -0.26042137 67
3.3813305 0.89023018 0.67966169 53
2.9262679 0.76987749 -0.15857796 63
3.4621835 0.91022485 0.8264702 46
2.9918592 0.78657436 -0.053997744 73
3.5444434 0.93119007 0.98195946 60
1.2242802 0.31981418 -0.33905298 30
3.0474036 0.79549378 0.054975081 57
1.2011542 0.3133246 -0.28658766 84
3.1076052 0.81062794 0.16831245 66
1.5160186 0.39517614 -0.30453119 31
3.1793602 0.8281619 0.28743961 56
1.5369885 0.40006864 -0.25154665 39
3.2410078 0.84301209 0.4111872 50
2.8300066 0.73558015 -0.35902712 89
3.3094134 0.86018836 0.54157621 45
2.884892 0.74930704 -0.26076996 70
3.3882177 0.8794089 0.68042493 53
2.9328039 0.76066029 -0.15878731 63
3.4577942 0.89617747 0.82467055 51
2.9849081 0.77361673 -0.053823221 65
3.5495422 0.91929704 0.98247713 63
1.2104226 0.31168446 -0.33491185 31
3.050025 0.78538305 0.054975081 59
1.2097356 0.31128246 -0.28838724 84
3.1104152 0.79977757 0.16831245 64
1.5173889 0.38988143 -0.30453119 30
3.1745129 0.81507611 0.28674239 56
1.5325667 0.39349613 -0.25060806 37
3.2476311 0.83324724 0.41167468 52
2.830508 0.7256977 -0.35878339 85
3.3047419 0.8466692 0.54032475 46
2.8759091 0.73626959 -0.25972411 67
3.3873115 0.86719513 0.67966169 55
2.9469204 0.75389987 -0.15941535 65
3.4645228 0.88567209 0.82557034 51
2.9837151 0.76220495 -0.053753413 65
3.5302675 0.90116638 0.97626543 61
1.2114495 0.30766907 -0.33491185 30
3.0391796 0.77129054 0.054730747 55
1.2089258 0.30657902 -0.28793734 82
3.1228685 0.79136759 0.1688358 70
1.5148673 0.38388324 -0.30376795 31
3.1733348 0.80356854 0.28639376 53
1.5186107 0.38426781 -0.24810509 31
3.2428219 0.81995845 0.41069973 50
2.8368731 0.71678472 -0.35927087 85
3.307677 0.83512902 0.54032475 47
2.8707342 0.72427583 -0.25902686 67
3.3827035 0.85344386 0.67813522 53
2.9456606 0.74263126 -0.15920599 65
3.4694829 0.87405008 0.8260203 48
2.990236 0.75276071 -0.053823221 69
3.5390127 0.89025098 0.97781837 60
1.2181913 0.30463311 -0.33646476 27
3.0418537 0.76067632 0.054730747 54
1.2024263 0.30046713 -0.28613773 82
3.1275496 0.78094649 0.16894048 75
1.5200737 0.37927929 -0.30453119 30
3.1685264 0.79000187 0.28569651 55
1.5161753 0.37774447 -0.24747935 26
3.2379596 0.80671495 0.40972477 50
2.8316522 0.70496148 -0.35829589 81
3.3144059 0.82453084 0.54095048 45
2.8751783 0.71473199 -0.25920117 65
3.3743763 0.83820093 0.6758455 55
2.9328554 0.72798139 -0.15836863 63
3.470772 0.86085784 0.82557034 51
2.9967275 0.74328029 -0.05389303 69
3.5383475 0.87696499 0.9767831 57
1.2192473 0.30037865 -0.33646476 27
3.0465629 0.75000095 0.054765653 57
1.1940577 0.2937308 -0.28388825 84
3.122499 0.7681154 0.16852181 75
1.5328275 0.37678233 -0.30682087 31
3.1867435 0.78273958 0.28709102 53
1.5194031 0.37292019 -0.24779223 19
3.2370389 0.79389536 0.4092373 49
2.8265049 0.69268757 -0.35732093 85
3.3134267 0.81201673 0.54032475 46
2.8834617 0.70611238 -0.25972411 70
3.3810961 0.82734942 0.67660874 53
2.9314981 0.71679115 -0.15815927 63
3.4548249 0.84411281 0.82107133 46
3.001246 0.73329043 -0.053927936 73
3.5470178 0.86598217 0.97833604 63
1.2202884 0.29612109 -0.33646476 27
3.0490336 0.73989326 0.054765653 57
1.2044945 0.29206589 -0.28613773 88
3.1096327 0.75344777 0.16768442 66
1.515052 0.36681002 -0.30300471 31
3.1817102 0.76973772 0.28639376 55
1.5340712 0.37113139 -0.2499823 28
3.2415833 0.78362209 0.40948102 54
2.8249271 0.68237907 -0.35683349 85
3.3085599 0.79859245 0.53907323 46
2.882035 0.69510782 -0.25937548 67
3.3914552 0.81797302 0.67813522 55
2.9377422 0.70800257 -0.15836863 65
3.4538162 0.83173978 0.82017154 46
2.9785132 0.71672702 -0.053474173 69
3.5425055 0.85178965 0.97626543 63
1.2099904 0.28937703 -0.33335894 28
3.0554876 0.7301743 0.054835461 57
1.2130885 0.28966975 -0.28793734 90
3.1141863 0.74305266 0.16778909 68
1.5162601 0.3617835 -0.30300471 30
3.1764929 0.75733334 0.28569651 56
1.5411223 0.36714718 -0.25092092 34
3.250092 0.77368188 0.41021225 49
2.8369482 0.67481011 -0.35805216 89
3.3074837 0.78612411 0.5384475 46
2.8804474 0.68462592 -0.25902686 70
3.3866494 0.80431587 0.67660874 55
2.940196 0.69774288 -0.15836863 65
3.4604907 0.82057697 0.82107133 51
2.986834 0.70770949 -0.053578887 73
3.5285385 0.8354122 0.97160673 59
1.2034715 0.28338018 -0.3312884 29
3.0404987 0.71538293 0.054521319 54
1.2159892 0.28587976 -0.28838724 84
3.1187053 0.73263502 0.16789377 66
1.5175136 0.35648885 -0.30300471 28
3.1713586 0.74442017 0.28499928 52
1.5231626 0.35725495 -0.24779223 31
3.2450421 0.76052105 0.4092373 52
2.8392866 0.66490245 -0.35805216 89
3.3063607 0.77367461 0.53782177 48
2.8789396 0.67365986 -0.25867823 67
3.3779659 0.78980815 0.67431903 53
2.9426136 0.68747461 -0.15836863 65
3.469027 0.80982238 0.82242107 48
2.9912336 0.69773406 -0.053613789 69
3.5370774 0.82440478 0.97315967 61
1.2119812 0.28092265 -0.33335894 28
3.0410295 0.70431328 0.054486416 59
1.1998928 0.27767882 -0.28433815 82
3.1270812 0.72309482 0.16820778 68
1.5206615 0.35163221 -0.3033863 32
3.1817029 0.73513877 0.28569651 53
1.5263252 0.35237989 -0.24810509 28
3.241874 0.74785119 0.4085061 54
2.8319182 0.65275872 -0.35683349 85
3.3167412 0.76390105 0.53907323 47
2.8812737 0.66360557 -0.25867823 67
3.3807023 0.77801275 0.67431903 53
2.9313698 0.67406625 -0.15763591 70
3.4699337 0.79727101 0.82197118 46
2.9994981 0.68862998 -0.053718507 76
3.5436995 0.81291777 0.97419494 63
1.2204883 0.27840859 -0.33542949 28
3.0434692 0.69369447 0.054486416 57
1.2008547 0.27348897 -0.28433815 82
3.1140065 0.70862865 0.16737041 68
1.5237942 0.3467572 -0.30376795 31
3.190078 0.72535408 0.28621945 57
1.5256196 0.34661254 -0.24779223 24
3.240593 0.7356506 0.40801859 56
2.8283715 0.64155269 -0.35610226 89
3.3193874 0.75231951 0.53907323 47
2.8874586 0.65442544 -0.25902686 70
3.3795679 0.76533902 0.67355579 56
2.9220169 0.66118562 -0.15700789 68
3.4574893 0.78171653 0.81837195 46
2.997982 0.67727488 -0.053648699 73
3.5427468 0.79969126 0.97315967 63
1.2214528 0.27414626 -0.33542949 28
3.045872 0.6830672 0.054486416 57
1.201802 0.26929522 -0.28433815 82
3.1067164 0.69557178 0.16684705 66
1.5154161 0.33929095 -0.30185983 34
3.1828687 0.71203995 0.28534791 55
1.5268203 0.34128463 -0.24779223 19
3.2373295 0.7230354 0.40728739 52
2.8267188 0.63081181 -0.35561478 92
3.3104255 0.73814785 0.53719604 48
2.893615 0.64520884 -0.25937548 70
3.3898842 0.75524426 0.67508227 55
2.9418528 0.65488839 -0.15794992 65
3.4544904 0.7683726 0.81702226 48
2.9886158 0.66420203 -0.053439267 73
3.5417445 0.78648478 0.9721244 61
1.2110837 0.26738229 -0.33232367 29
3.0501907 0.67286092 0.054521319 55
1.2046378 0.26551822 -0.28478804 80
3.1149769 0.68601245 0.16716106 68
1.5165912 0.3339994 -0.30185983 34
3.1814432 0.70006824 0.28499928 53
1.5299315 0.33637747 -0.24810509 17
3.2495279 0.71386093 0.4085061 56
2.8327816 0.6217913 -0.35610226 92
3.3091228 0.72574049 0.53657025 48
2.8763883 0.63083529 -0.25763237 67
3.3848288 0.74172652 0.67355579 55
2.9421697 0.64418739 -0.15784526 70
3.4609592 0.75714153 0.81792206 44
2.9909158 0.65376645 -0.053439267 73
3.5350316 0.77205503 0.96953619 55
1.2062546 0.26234484 -0.33077076 31
3.0425189 0.66115254 0.054346792 57
1.2073703 0.26214555 -0.28523794 72
3.1171165 0.67622364 0.16716106 68
1.5176904 0.32896867 -0.30185983 32
3.1719439 0.68753821 0.2839534 53
1.5213279 0.32947835 -0.24654076 16
3.2556345 0.70448899 0.40899354 54
2.8386014 0.61372834 -0.35658973 92
3.3113863 0.71534169 0.53657025 48
2.8745694 0.6204533 -0.25728375 70
3.3757548 0.72801536 0.67126608 53
2.9403851 0.63358504 -0.15763591 70
3.4690356 0.74749696 0.81927174 51
2.9929552 0.64436615 -0.053439267 76
3.5298846 0.75932115 0.96746564 53
1.2109866 0.25872889 -0.33180603 30
3.0449216 0.64999735 0.054346792 57
1.2026055 0.25649935 -0.28388825 76
3.1293414 0.66687489 0.16768442 66
1.5284871 0.32544848 -0.30376795 31
3.1822371 0.67756826 0.28465065 56
1.5147965 0.32225636 -0.24528927 16
3.2407196 0.68883646 0.40679988 52
2.8388898 0.60290843 -0.35634598 85
3.319783 0.70443088 0.5375089 49
2.8807218 0.61074036 -0.25763237 70
3.3687971 0.71360427 0.66935802 51
2.9290097 0.61990958 -0.15690321 65
3.4622192 0.73276055 0.81702226 48
2.9952967 0.63339275 -0.053439267 76
3.5383151 0.74757385 0.96901858 56
1.2232708 0.25666913 -0.33491185 33
3.0433695 0.63800997 0.054276984 59
1.1978153 0.2508916 -0.28253853 72
3.1179659 0.65308183 0.16695172 72
1.5257704 0.31930634 -0.30300471 30
3.180799 0.66508228 0.28430203 55
1.523702 0.31831837 -0.24654076 16
3.2432222 0.67695469 0.40679988 52
2.8351476 0.59177762 -0.35561478 89
3.3164206 0.69162762 0.53657025 48
2.8886876 0.60190088 -0.25815532 65
3.3789561 0.70344031 0.67088449 51
2.9233346 0.60805398 -0.15648453 65
3.4571245 0.71908242 0.81522262 48
2.9974892 0.62293398 -0.053439267 76
3.539011 0.73482794 0.96850091 55
1.2203312 0.25183001 -0.33387658 34
3.0493853 0.62872255 0.054346792 57
1.2043667 0.24809791 -0.28388825 80
3.1122897 0.64112741 0.16653302 70
1.5210521 0.31305721 -0.30185983 32
3.182987 0.65453136 0.28430203 53
1.5305538 0.31445676 -0.24747935 16
3.2454495 0.66619515 0.40679988 52
2.8332055 0.58157355 -0.35512727 92
3.30902 0.67864251 0.53500593 49
2.8887157 0.59191895 -0.25798097 67
3.3851171 0.69301796 0.67164773 51
2.9292481 0.59915757 -0.15669388 65
3.4518533 0.70605284 0.81342304 48
2.9877832 0.61058885 -0.053229842 73
3.5489998 0.72463304 0.97057146 53
1.2060133 0.24470884 -0.32973549 31
3.0514534 0.61860758 0.054346792 59
1.2070929 0.24448924 -0.28433815 72
3.1184239 0.63105106 0.16674237 72
1.5105366 0.30567545 -0.29957014 32
3.1734231 0.64160269 0.28325617 53
1.5315883 0.3093791 -0.24747935 16
3.2495866 0.65582258 0.40704364 54
2.8352182 0.57167953 -0.35512727 92
3.2997501 0.66474777 0.53312874 52
2.8829517 0.58025861 -0.25728375 70
3.3854716 0.68140203 0.67126608 53
2.937093 0.59062093 -0.15700789 77
3.4504752 0.69323236 0.81252325 44
2.9898968 0.600155 -0.053229842 73
3.5363545 0.70920044 0.96643037 52
1.2144809 0.24179609 -0.33180603 31
3.0398657 0.60521966 0.054102462 55
1.2022051 0.23913334 -0.28298843 66
3.1245253 0.62094116 0.16695172 70
1.5174236 0.30128434 -0.300715 31
3.1757531 0.62996793 0.28325617 53
1.5191481 0.30107564 -0.24528927 16
3.2499087 0.64409018 0.40679988 52
2.8469326 0.56370914 -0.35634598 96
3.317553 0.65629143 0.53563172 58
2.8810506 0.56941825 -0.25693512 70
3.3821678 0.66784883 0.67012119 51
2.9529545 0.58255863 -0.15774059 72
3.4644649 0.68284124 0.81522262 48
2.9958973 0.59048724 -0.053299651 73
3.5312266 0.69535965 0.96435976 55
1.2191094 0.23829614 -0.33284131 33
3.0361757 0.59292328 0.053997744 57
1.1973355 0.23360619 -0.28163874 70
3.1227534 0.60926497 0.16674237 68
1.5223199 0.29673654 -0.30147824 31
3.1779325 0.61887932 0.28325617 53
1.5260069 0.29690239 -0.24622789 16
3.246402 0.63103718 0.40606871 54
2.8431337 0.55213481 -0.35561478 92
3.3237019 0.64546078 0.53625745 54
2.8849764 0.55973816 -0.25710943 73
3.3748417 0.65416986 0.66821313 53
2.9490871 0.57110882 -0.15742657 75
3.4668272 0.67074454 0.81522262 48
2.9999037 0.58040649 -0.053334557 69
3.5393226 0.68412983 0.9659127 51
1.2199336 0.23403947 -0.33284131 31
3.0459809 0.58435941 0.054137368 57
1.1961895 0.22926779 -0.28118882 80
3.1229 0.59798443 0.1666377 74
1.5349163 0.2936345 -0.30376795 31
3.1839876 0.60853118 0.28360477 55
1.5308635 0.29258224 -0.24685362 16
3.2445769 0.61952269 0.40558121 56
2.8371491 0.54121625 -0.3546398 92
3.3220541 0.63311452 0.53563172 58
2.8947418 0.55115414 -0.25780669 73
3.3827786 0.64407557 0.66935802 51
2.9391923 0.5590874 -0.15679854 75
3.4498878 0.65560526 0.8107236 44
3.0019114 0.56993055 -0.053334557 69
3.553077 0.6739319 0.96901858 56
1.2245002 0.23070778 -0.33387658 31
3.0499673 0.57409245 0.05417227 54
1.2046432 0.22653118 -0.28298843 62
3.1171165 0.58560538 0.16621901 74
1.5223752 0.28600505 -0.30109662 34
3.1859882 0.59796852 0.28360477 55
1.5299342 0.28687233 -0.24654076 15
3.2408662 0.60709751 0.40485001 52
2.8331676 0.53021324 -0.3539086 96
3.3125935 0.61933702 0.53375447 56
2.8906782 0.54045391 -0.25728375 70
3.3869362 0.63262475 0.6697396 55
2.9489796 0.55028898 -0.15721723 75
3.4483237 0.64284539 0.80982381 44
2.9842236 0.5557878 -0.052985508 69
3.5440123 0.65940404 0.9659127 56
1.2025017 0.22221962 -0.32766491 33
3.0519524 0.56344318 0.05417227 54
1.2092595 0.22303198 -0.28388825 66
3.1171772 0.57435977 0.16611435 70
1.5195026 0.27997804 -0.30033338 35
3.1841371 0.58612144 0.28325617 53
1.5386972 0.28295952 -0.24779223 15
3.2507756 0.59721494 0.40582496 50
2.8428113 0.52175307 -0.35488355 96
3.3108487 0.60705829 0.53312874 57
2.8886273 0.52964222 -0.25693512 79
3.3891239 0.6207974 0.6697396 53
2.9508827 0.53999096 -0.15721723 76
3.4524636 0.63115579 0.81027371 46
2.9822111 0.54464811 -0.052915696 69
3.5329895 0.64460093 0.96228927 53
1.2108736 0.21939869 -0.32973549 33
3.0401268 0.55029243 0.053927936 57
1.2138659 0.21950272 -0.28478804 76
3.1269262 0.56544036 0.16653302 72
1.5224026 0.27502164 -0.300715 31
3.1783206 0.57358843 0.28255892 53
1.5280114 0.2754834 -0.245915 15
3.2489328 0.58516246 0.40533748 52
2.8446152 0.51182717 -0.35488355 96
3.3089554 0.59537524 0.53250295 56
2.8806539 0.51779264 -0.25606358 76
3.3777435 0.60653514 0.66706824 48
2.9488177 0.52898252 -0.15700789 82
3.4623184 0.6204747 0.81207329 46
2.9918742 0.53616738 -0.053055316 69
3.5351074 0.63288224 0.96228927 53
1.207828 0.21449475 -0.32870021 34
3.0439038 0.54055822 0.053962842 55
1.208831 0.21445465 -0.28343832 90
3.1210146 0.55312848 0.16611435 72
1.5272198 0.27038988 -0.30147824 28
3.1763797 0.56179571 0.28221029 55
1.5172455 0.26835015 -0.24403779 13
3.2430363 0.57300287 0.4043625 49
2.8443418 0.50204676 -0.3546398 92
3.3187954 0.58519244 0.53375447 56
2.886368 0.50842595 -0.25641218 73
3.3797362 0.59533143 0.66706824 49
2.9426873 0.51781702 -0.1565892 76
3.4585991 0.60797668 0.8107236 44
2.9996359 0.52675873 -0.05316003 76
3.5372951 0.62053937 0.96228927 55
1.2237582 0.21313973 -0.33284131 34
3.0457723 0.52992892 0.053962842 54
1.209572 0.21023457 -0.28343832 90
3.1111195 0.54017985 0.16548631 72
1.5300424 0.26565936 -0.30185983 32
3.1860774 0.55262196 0.28290752 55
1.5220656 0.26372787 -0.24466354 11
3.2332807 0.55964684 0.4029001 50
2.8402088 0.49109972 -0.3539086 96
3.3208175 0.57360643 0.53375447 54
2.8959789 0.49970195 -0.25710943 73
3.3779244 0.58286178 0.66630507 49
2.9444771 0.50754118 -0.1565892 78
3.4568591 0.59524119 0.80982381 44
2.999486 0.51594508 -0.053125124 69
3.5375357 0.60785997 0.96177161 51
1.2188179 0.20767979 -0.3312884 36
3.0515459 0.51996642 0.05403265 54
1.2045352 0.20502977 -0.28208864 84
3.1188934 0.53032035 0.16580033 74
1.5232637 0.25873503 -0.30033338 34
3.1880813 0.54094136 0.28290752 55
1.5327603 0.25979692 -0.24622789 12
3.2430434 0.54968327 0.40387502 52
2.8360341 0.48018903 -0.3531774 92
3.3111131 0.56003356 0.53187722 60
2.8977056 0.48958927 -0.25710943 73
3.3858457 0.5714581 0.66744989 53
2.9423788 0.49608228 -0.15637985 76
3.4494095 0.58094645 0.80757427 42
2.993381 0.50414252 -0.052985508 69
3.545351 0.59647024 0.96332449 52
1.2061969 0.20119877 -0.32766491 34
3.053431 0.50877911 0.05403265 54
1.2110455 0.20157368 -0.28343832 82
3.1168754 0.51823092 0.16559097 74
1.5241576 0.25341585 -0.30033338 34
3.1801229 0.52817655 0.28203598 57
1.5356064 0.25476938 -0.24654076 11
3.2528698 0.53909218 0.40485001 52
2.8456089 0.47108734 -0.35415235 89
3.30145 0.54596102 0.53000003 57
2.8797398 0.47622275 -0.25536633 76
3.3897572 0.55995494 0.66783154 51
2.9480336 0.48645794 -0.1565892 75
3.4552615 0.56953841 0.80847406 42
2.985343 0.4915441 -0.052810986 73
3.5437012 0.58284396 0.96228927 55
1.2126116 0.19792156 -0.32921785 36
3.0393996 0.4955425 0.053753413 55
1.2136651 0.19765805 -0.28388825 80
3.124579 0.50831217 0.165905 72
1.5250328 0.24809507 -0.30033338 34
3.1819472 0.51707333 0.28203598 57
1.526737 0.24782458 -0.2449764 9
3.2547314 0.52773649 0.40485001 52
2.8472359 0.46115205 -0.35415235 92
3.307236 0.53506356 0.53062576 57
2.8853185 0.46680334 -0.25571495 73
3.3800623 0.54623884 0.66554183 48
2.9536572 0.47680166 -0.15679854 75
3.4610765 0.55809337 0.80937392 42
2.9890151 0.4814375 -0.052845888 69
3.53427 0.5686301 0.95918339 51
1.2171105 0.1942963 -0.33025309 38
3.041111 0.4849292 0.053753413 55
1.1989517 0.19096838 -0.28028902 70
3.1262476 0.49794701 0.165905 72
1.5336449 0.24400367 -0.30185983 32
3.1817653 0.50564957 0.28186166 55
1.5256419 0.2421844 -0.24466354 8
3.2467506 0.51481688 0.4036313 54
2.8527493 0.4518308 -0.3546398 92
3.3167963 0.52532852 0.53187722 60
2.8869302 0.45672947 -0.25571495 76
3.3780699 0.53382635 0.66477859 48
2.9434667 0.46461937 -0.15617052 75
3.4649284 0.54631281 0.80982381 44
2.9984961 0.47277075 -0.052985508 69
3.5323193 0.55630648 0.95814812 51
1.2215989 0.19064206 -0.3312884 36
3.044678 0.47515079 0.053788319 57
1.193802 0.18609124 -0.27893931 63
3.1102059 0.48426503 0.16496295 74
1.5306076 0.23804495 -0.30109662 34
3.1874485 0.49515235 0.28221029 56
1.5166768 0.23560728 -0.24309918 7
3.2445171 0.50343782 0.40314382 54
2.8424623 0.44054466 -0.3531774 92
3.3225141 0.51435268 0.53250295 57
2.8963828 0.44786647 -0.25641218 76
3.3798215 0.52262044 0.66477859 49
2.9410436 0.45424676 -0.15596117 76
3.4570913 0.53333312 0.80757427 46
3.000128 0.46230036 -0.052985508 65
3.545696 0.54573536 0.961254 53
1.2164952 0.18571505 -0.32973549 34
3.0482945 0.46482202 0.053823221 54
1.2137096 0.18485689 -0.28343832 78
3.1079283 0.47280386 0.16475362 74
1.5197431 0.23119594 -0.29880691 35
3.1890726 0.48458031 0.28221029 55
1.5389731 0.23357253 -0.24654076 6
3.244292 0.49181086 0.4029001 52
2.8380945 0.42972898 -0.35244617 96
3.3047574 0.49979863 0.5293743 57
2.8939121 0.437664 -0.25606358 76
3.3855078 0.51140499 0.66554183 49
2.9485357 0.44487238 -0.15627518 72
3.449297 0.51981109 0.80532479 39
2.993814 0.45063373 -0.052845888 69
3.5399377 0.53220713 0.95918339 52
1.209493 0.18032829 -0.32766491 34
3.0498989 0.45417786 0.053823221 54
1.2085648 0.17975928 -0.28208864 80
3.1233885 0.46400732 0.16548631 70
1.516657 0.22531296 -0.29804367 34
3.180891 0.47198245 0.28133872 57
1.5202386 0.22530276 -0.24341206 6
3.2558074 0.4819372 0.40411878 54
2.8435047 0.42039943 -0.35293365 96
3.3103907 0.48883611 0.53000003 57
2.8875382 0.42639467 -0.25536633 73
3.3872721 0.49958494 0.66554183 49
2.9520466 0.43486765 -0.15637985 76
3.4549465 0.5083341 0.80622458 39
2.9874549 0.43901831 -0.052706268 69
3.5379512 0.51928514 0.95814812 53
1.2101151 0.17610553 -0.32766491 33
3.0435498 0.44237909 0.053683605 55
1.2130419 0.17609912 -0.28298843 80
3.1170826 0.45195609 0.16506761 72
1.523263 0.22086293 -0.29918852 34
3.1766033 0.46002018 0.28081581 56
1.528836 0.22112615 -0.24466354 5
3.2574697 0.47057009 0.40411878 54
2.8508492 0.41132227 -0.35366488 92
3.308166 0.47671488 0.5293743 60
2.8811207 0.4151766 -0.25466907 76
3.3773358 0.48608077 0.66325212 49
2.9614544 0.42569634 -0.15679854 76
3.4605577 0.49682558 0.80712438 44
2.9988663 0.43000728 -0.052880794 73
3.535918 0.5063836 0.95711285 52
1.2183731 0.17296676 -0.32973549 34
3.0411158 0.43119016 0.053613789 55
1.200143 0.1699508 -0.27983913 76
3.1186411 0.44107336 0.16506761 72
1.5279123 0.21609457 -0.29995176 32
3.1821353 0.44948545 0.28116441 56
1.5217745 0.21468399 -0.24341206 6
3.2414012 0.45670456 0.40192512 52
2.8483362 0.40081444 -0.3531774 89
3.3176346 0.46626312 0.53062576 57
2.8864987 0.40567091 -0.2550177 73
3.3790119 0.47428939 0.66325212 49
2.9431431 0.41258422 -0.15575182 76
3.4603412 0.48447186 0.80667448 42
2.9904468 0.41815266 -0.052706268 65
3.5376637 0.49403858 0.95711285 52
1.2208831 0.16897732 -0.33025309 38
3.0465641 0.42112035 0.053683605 55
1.2007289 0.16576074 -0.27983913 74
3.116205 0.42963821 0.16485828 72
1.5247678 0.21022317 -0.29918852 32
3.1915803 0.43946278 0.28186166 56
1.5264286 0.20990925 -0.24403779 6
3.2390425 0.44484612 0.40143764 52
2.841851 0.38979104 -0.35220242 92
3.3153279 0.45414409 0.53000003 54
2.8938189 0.39640447 -0.25554064 70
3.3767569 0.46195847 0.66248888 49
2.9445655 0.40230745 -0.15575182 78
3.4523568 0.47107345 0.804425 39
3.0017953 0.40906075 -0.052880794 73
3.5412812 0.48194644 0.95763052 50
1.2214656 0.16471429 -0.33025309 39
3.0559425 0.41155145 0.053823221 55
1.2013001 0.16156808 -0.27983913 76
3.1077883 0.41742778 0.16433492 76
1.5216007 0.20437635 -0.29842529 32
3.1871705 0.42752546 0.28133872 57
1.5310677 0.2051039 -0.24466354 6
3.2484457 0.43458906 0.40241259 52
2.8353238 0.3788178 -0.35122749 92
3.305145 0.44100028 0.52812284 58
2.8971601 0.38656351 -0.25571495 73
3.3861334 0.45120496 0.66401535 49
2.9459517 0.39202857 -0.15575182 76
3.4539804 0.45901868 0.804425 44
2.9893286 0.39673764 -0.052636456 69
3.5448565 0.46983832 0.95814812 52
1.2105407 0.15894091 -0.32714728 43
3.0533955 0.40036097 0.053753413 55
1.2095857 0.15838665 -0.28163874 72
3.1151676 0.40735459 0.16464894 72
1.5223049 0.19906405 -0.29842529 37
3.1787653 0.41510668 0.28046718 56
1.535692 0.2002687 -0.24528927 6
3.257817 0.42427337 0.40338758 50
2.8445032 0.36994165 -0.35220242 92
3.3066642 0.4294596 0.52812284 62
2.8807096 0.37413788 -0.25414613 79
3.3837936 0.43887803 0.66325212 49
2.9591866 0.38328138 -0.15637985 76
3.4555616 0.4469583 0.804425 39
2.9847455 0.38553265 -0.052531745 62
3.5349791 0.4559778 0.9550423 51
1.2110882 0.15471405 -0.32714728 41
3.0389051 0.38767645 0.053474173 55
1.2081981 0.15391685 -0.28118882 85
3.1264772 0.39773759 0.16517229 74
1.5268856 0.19424412 -0.29918852 37
3.1762421 0.40350673 0.28011855 56
1.5324624 0.19441076 -0.24466354 6
3.2553396 0.41239902 0.4029001 52
2.8477464 0.36025998 -0.35244617 96
3.3042233 0.41742164 0.52749711 56
2.8819978 0.36408201 -0.25414613 79
3.3775141 0.42607996 0.66172564 51
2.9545617 0.37219989 -0.15606584 72
3.4551671 0.43465257 0.80397505 42
2.9959939 0.37635699 -0.052706268 69
3.5327158 0.44315383 0.95400703 53
1.2116207 0.15048645 -0.32714728 41
3.04024 0.37706551 0.053474173 62
1.2048601 0.14921916 -0.28028902 85
3.1298285 0.38706899 0.16527697 68
1.5236574 0.18843222 -0.29842529 34
3.1875181 0.39363721 0.28099012 57
1.5252895 0.18809281 -0.24341206 5
3.2469079 0.39982247 0.40168139 56
2.8529272 0.35080105 -0.35293365 96
3.3174241 0.40732875 0.5293743 58
2.8872061 0.35450459 -0.25449476 79
3.3750832 0.41381213 0.6609624 51
2.9459307 0.36067131 -0.15554248 76
3.4663348 0.42377061 0.80622458 39
2.9972889 0.36589879 -0.052706268 65
3.5419121 0.43175545 0.95607764 52
1.2178925 0.14695011 -0.32870021 34
3.049479 0.36740676 0.053613789 55
