# .PCD v0.7 - Point Cloud Data file format
VERSION 0.7
FIELDS x y z intensity
SIZE 4 4 4 4
TYPE F F F F
COUNT 1 1 1 1
WIDTH 1284
HEIGHT 1
VIEWPOINT 0 0 0 1 0 0 0
POINTS 1284
DATA ascii
-1.0889921 -0.027755545 -0.25149527 11
-0.68883377 -0.017436266 0.036111813 34
-1.1461735 -0.029012784 -0.22286493 10
-0.61943746 -0.015571482 0.054210871 56
-1.1473366 -0.0286415 -0.18177687 82
-0.57550001 -0.014265977 0.070684224 90
-0.82951736 -0.020417914 -0.10188278 51
-0.55886477 -0.013658422 0.088541918 92
-0.76484913 -0.018692594 -0.066935606 66
-0.52992272 -0.012858425 0.10303687 100
-0.74076819 -0.017845351 -0.038833283 12
-0.54938763 -0.013138996 0.12687239 100
-0.76766676 -0.018225059 -0.013403447 100
-0.64699066 -0.015247284 0.17340876 100
-1.0661161 -0.02382122 -0.28573623 7
-0.77569127 -0.017196547 0.013543067 100
-1.1046686 -0.024297129 -0.2550945 11
-0.67291611 -0.014683101 0.035274439 42
-1.1344908 -0.024754712 -0.2205752 9
-0.61152035 -0.013236663 0.053513624 58
-1.1533543 -0.024763826 -0.18271549 76
-0.58348489 -0.012426065 0.071659178 88
-0.82164502 -0.017354533 -0.10090782 54
-0.55298418 -0.01158328 0.087603308 83
-0.77486962 -0.016231081 -0.067807168 64
-0.53585285 -0.011131 0.10418171 100
-0.75081015 -0.015465111 -0.039356641 100
-0.5572235 -0.011380211 0.128672 94
-0.76372719 -0.015464489 -0.013333639 100
-0.64510852 -0.012949983 0.17289113 100
-1.0584668 -0.019953957 -0.28366569 7
-0.77974522 -0.014563622 0.013612877 100
-1.1008497 -0.020368572 -0.25419468 11
-0.67695719 -0.012407276 0.035483781 35
-1.1267188 -0.02065051 -0.21904872 9
-0.60359454 -0.010957454 0.052816376 58
-1.1573838 -0.020808429 -0.18334122 76
-0.5914638 -0.010530581 0.072634131 97
-0.82963967 -0.014626491 -0.10188278 46
-0.54117084 -0.0094462 0.085726097 85
-0.75699276 -0.013213396 -0.066238366 83
-0.55551809 -0.0095996531 0.1079979 100
-0.76084441 -0.01301498 -0.039880004 100
-0.59233218 -0.01002901 0.13677025 97
-0.75577879 -0.012664451 -0.01319402 100
-0.65480775 -0.010858031 0.17547932 15
-1.0701196 -0.016437341 -0.28677151 6
-0.76579511 -0.01162915 0.013368543 100
-1.1087083 -0.016642731 -0.25599429 11
-0.67899334 -0.010073951 0.035588451 41
-1.1385623 -0.01689239 -0.22133845 9
-0.61558223 -0.0090256892 0.053862248 80
-1.1534991 -0.016711017 -0.18271549 69
-0.58951205 -0.0084376382 0.0723904 97
-0.82968563 -0.011730198 -0.10188278 46
-0.54910123 -0.0076674111 0.086977579 84
-0.75902641 -0.010598714 -0.066412672 82
-0.55751127 -0.0076875282 0.10837951 89
-0.75689101 -0.010304659 -0.039670657 13
-0.63523197 -0.0085374536 0.14666808 97
-0.75981742 -0.010079241 -0.013263829 100
-0.66256839 -0.0086735459 0.17754988 20
-1.0585802 -0.012564233 -0.28366569 7
-0.7638315 -0.0089323688 0.013333639 100
-1.0892736 -0.012548272 -0.25149527 11
-0.67702591 -0.0077992403 0.035483781 35
-1.1386143 -0.012917931 -0.22133845 9
-0.61361772 -0.0068544326 0.053687938 69
-1.1456493 -0.012597812 -0.181464 65
-0.59350789 -0.0064227507 0.072877876 100
-0.82972157 -0.0088339597 -0.10188278 46
-0.55702466 -0.0059305839 0.088229045 72
-0.76304334 -0.0079908604 -0.0667613 97
-0.55753469 -0.0057415213 0.10837951 89
-0.74693662 -0.0075614429 -0.039147299 13
-0.67423075 -0.0067077419 0.15566613 100
-0.76784509 -0.0076390854 -0.013403447 100
-0.66838878 -0.006532961 0.17910279 24
-1.062481 -0.0089013595 -0.28470096 7
-0.7698558 -0.0064497739 0.013438353 100
-1.0893092 -0.0089360001 -0.25149527 11
-0.67904621 -0.0054519475 0.035588451 29
-1.154358 -0.0090663945 -0.22439139 9
-0.61762249 -0.004743048 0.054036558 68
-1.1496353 -0.0088286549 -0.18208973 58
-0.58161569 -0.0043651606 0.071415439 98
-0.80989593 -0.0059369109 -0.099445395 50
-0.56691855 -0.0040568295 0.089793392 70
-0.76505888 -0.0053413636 -0.066935606 95
-0.58896196 -0.0041119186 0.11448541 83
-0.74296314 -0.005057252 -0.038937956 13
-0.67814672 -0.004497698 0.15656593 100
-0.75786877 -0.0048943516 -0.013228924 100
-0.68579382 -0.0043090335 0.18376154 24
-1.0702322 -0.005417068 -0.28677151 7
-0.76787388 -0.0037526421 0.013403447 18
-1.0776415 -0.0050784168 -0.24879587 11
-0.66707772 -0.0030272007 0.034960423 30
-1.1465297 -0.0050025829 -0.22286493 9
-0.61763483 -0.0026948885 0.054036558 68
-1.1615114 -0.0048655146 -0.18396695 56
-0.59155273 -0.0023747447 0.072634131 100
-0.80991173 -0.0031097878 -0.099445395 50
-0.56100327 -0.0020562881 0.088854782 61
-0.76308054 -0.0026636189 -0.0667613 100
-0.62823796 -0.0020832927 0.12211777 76
-0.74697119 -0.0023468363 -0.039147299 15
-0.69959432 -0.0021979874 0.16151486 100
-0.75388187 -0.0022367982 -0.013159114 100
-0.68966842 -0.0019259105 0.18479681 24
-1.05479 -0.001472836 -0.28263038 7
-0.7698822 -0.00094064855 0.013438353 19
-1.0971402 -0.0011487576 -0.25329489 11
-0.67107886 -0.00058569293 0.035169765 30
-1.1347607 -0.00079233613 -0.2205752 9
-0.61166346 -0.00042708829 0.053513624 81
-1.159546 -0.00060699898 -0.18365408 52
-0.59751278 -0.00020864897 0.073365353 100
-0.81190276 -0.00014181781 -0.099689126 43
-0.5471794 4.7835943e-08 0.086664706 52
-0.75511563 0.00013167057 -0.066064052 100
-0.63413113 0.00022124445 0.12326261 90
-0.74897212 0.00039220275 -0.039251972 14
-0.69570023 0.00036430667 0.16061506 33
-0.74188685 0.00051779154 -0.012949686 100
-0.67807972 0.00059175992 0.18169098 25
-1.0509247 0.0023841741 -0.28159514 9
-0.75988203 0.0018567002 0.013263829 18
-1.1029834 0.0028875323 -0.2546446 11
-0.67107683 0.0017568318 0.035169765 30
-1.1347566 0.003168484 -0.2205752 9
-0.61564565 0.0018266066 0.053862248 80
-1.1595404 0.0036426974 -0.18365408 48
-0.60147971 0.001994665 0.073852822 95
-0.82380831 0.0028755437 -0.10115156 41
-0.56297904 0.0019651062 0.089167662 51
-0.75311816 0.0027602341 -0.065889739 100
-0.65572214 0.0025178664 0.12746042 98
-0.75895238 0.0030465291 -0.039775331 18
-0.7132327 0.0029874817 0.16466418 35
-0.75187892 0.0031493572 -0.01312421 100
-0.67034614 0.0029249974 0.17962041 21
-1.0663645 0.0061418633 -0.28573623 9
-0.75587237 0.0043535437 0.01319402 18
-1.0971215 0.006510491 -0.25329489 11
-0.67705822 0.004135936 0.035483781 29
-1.1543708 0.0072531598 -0.22439139 9
-0.61762786 0.0039884825 0.054036558 91
-1.153596 0.0074496283 -0.18271549 45
-0.59352958 0.0039364509 0.072877876 96
-0.80394375 0.0054722885 -0.09871418 32
-0.59062326 0.0041233394 0.093547821 48
-0.75111157 0.0053748544 -0.065715425 100
-0.66356301 0.0047483682 0.1289869 100
-0.7469548 0.0054754759 -0.039147299 20
-0.69762939 0.0052356594 0.16106495 35
-0.75586259 0.0058047986 -0.01319402 100
-0.66646832 0.0052344389 0.17858516 21
-1.0702018 0.009712873 -0.28677151 7
-0.7658506 0.0070845126 0.013368543 18
-1.0815028 0.010193221 -0.24969566 11
-0.67104816 0.0064417883 0.035169765 30
-1.1464878 0.011005815 -0.22286493 9
-0.63155729 0.0061729229 0.055256739 77
-1.1575136 0.01151572 -0.18334122 37
-0.59549719 0.0060283425 0.073121615 96
-0.79796487 0.0082172416 -0.097982958 33
-0.58862996 0.0061643044 0.093234949 48
-0.76105112 0.0079699485 -0.066586986 100
-0.67728442 0.0072109341 0.13165821 100
-0.73894256 0.0079963747 -0.03872861 20
-0.68591511 0.007542267 0.15836555 39
-0.74983907 0.0083760489 -0.013089306 100
-0.69155836 0.0078457352 0.18531445 22
-1.0740247 0.013497352 -0.28780681 7
-0.77181983 0.0098342411 0.013473257 20
-1.089255 0.014068752 -0.25149527 11
-0.66702741 0.0087318756 0.034960423 30
-1.1327008 0.01482788 -0.22019359 9
-0.63153189 0.0083774487 0.055256739 77
-1.1712928 0.015741704 -0.1855313 22
-0.59944236 0.0081610428 0.073609091 85
-0.7820521 0.010783674 -0.096033052 35
-0.58070415 0.0081086643 0.091983475 49
-0.75105762 0.010487394 -0.065715425 100
-0.69492257 0.0098248571 0.13509277 100
-0.74689841 0.01069007 -0.039147299 21
-0.68003899 0.009851844 0.15701583 40
-0.74180728 0.010876182 -0.012949686 100
-0.674142 0.01000177 0.1806557 20
-1.0662447 0.017122271 -0.28573623 7
-0.76978141 0.012495715 0.013438353 18
-1.0930963 0.017935107 -0.25239509 11
-0.68296874 0.011325116 0.035797797 28
-1.1287161 0.018716585 -0.21943036 8
-0.61954618 0.010381439 0.054210871 91
-1.1870313 0.020098019 -0.18803425 20
-0.60536456 0.010355309 0.074340306 84
-0.77407044 0.013376122 -0.095058098 36
-0.58067232 0.010135666 0.091983475 49
-0.74504018 0.013004716 -0.065192491 100
-0.70077294 0.012354367 0.13623764 100
-0.75085044 0.013368117 -0.039356641 21
-0.69169104 0.012435764 0.15971525 40
-0.74776292 0.013574413 -0.0130544 100
-0.66830844 0.01224872 0.17910279 21
-1.0584526 0.02069279 -0.28366569 9
-0.75773716 0.014946085 0.013228924 19
-1.1008203 0.021905728 -0.25419468 11
-0.6789313 0.01362874 0.035588451 35
-1.128644 0.022656186 -0.21943036 9
-0.62747413 0.01270535 0.054908119 77
-1.184979 0.024201108 -0.18772139 13
-0.61127883 0.012590874 0.075071529 83
-0.77997303 0.016201936 -0.095789306 35
-0.59643298 0.0124935 0.09448643 47
-0.74100631 0.015521883 -0.064843871 31
-0.69091153 0.014593013 0.13432954 24
-0.75279593 0.016031716 -0.039461315 23
-0.69748825 0.014975654 0.16106495 42
-0.747711 0.016184352 -0.0130544 100
-0.67405576 0.014707925 0.1806557 23
-1.0660992 0.024565391 -0.28573623 9
-0.75768036 0.017591193 0.013228924 19
-1.0851516 0.025383372 -0.25059548 11
-0.6868664 0.016186807 0.03600714 34
-1.1442596 0.02696581 -0.22248329 8
-0.63937682 0.01517946 0.055953983 76
-1.176988 0.028148146 -0.1864699 9
-0.60527754 0.014581153 0.074340306 75
-0.77594274 0.018828167 -0.095301837 43
-0.62008315 0.015154385 0.098240852 36
-0.74891484 0.01830294 -0.065541118 31
-0.69085634 0.017004674 0.13432954 27
-0.73875892 0.018312927 -0.03872861 21
-0.70522428 0.01760463 0.16286457 42
-0.75364715 0.018945208 -0.013159114 100
-0.68558776 0.017354056 0.18376154 23
-1.066007 0.028286651 -0.28573623 7
-0.75761437 0.020235723 0.013228924 20
-1.0850563 0.029171135 -0.25059548 11
-0.68480921 0.018530479 0.03590247 34
-1.1480837 0.031066373 -0.22324654 8
-0.6353367 0.017302595 0.055605359 76
-1.1887305 0.032581195 -0.18834713 9
-0.60522294 0.016694039 0.074340306 75
-0.76198196 0.02115087 -0.093595661 61
-0.6160773 0.017208494 0.097615115 36
-0.75282961 0.021028308 -0.065889739 100
-0.69668019 0.019581772 0.1354744 28
-0.73070467 0.02066556 -0.038309924 21
-0.68762696 0.019567352 0.15881544 48
-0.7555753 0.021633064 -0.01319402 100
-0.66814351 0.019246327 0.17910279 20
-1.0659018 0.032007568 -0.28573623 7
-0.76353556 0.023061302 0.013333639 20
-1.0966349 0.033313569 -0.25329489 11
-0.68474036 0.020920653 0.03590247 34
-1.1361942 0.034713775 -0.22095683 8
-0.63328093 0.019459056 0.055431053 66
-1.1886095 0.036730472 -0.18834713 9
-0.60912925 0.018929753 0.074827783 75
-0.75396699 0.023562551 -0.092620708 63
-0.63970619 0.020103641 0.10136954 43
-0.76071727 0.023906579 -0.066586986 100
-0.70838124 0.022385431 0.13776411 31
-0.73462063 0.023342954 -0.038519271 22
-0.68755448 0.021967681 0.15881544 48
-0.74550188 0.023949189 -0.013019496 100
-0.67965734 0.021952679 0.18220863 22
-1.0541987 0.035339743 -0.28263038 7
-0.76544893 0.025793765 0.013368543 20
-1.0887214 0.036877483 -0.25149527 11
-0.68665928 0.023378694 0.03600714 28
-1.1360661 0.038679652 -0.22095683 8
-0.63520038 0.021737661 0.055605359 76
-1.2042676 0.041422546 -0.19085006 9
-0.62493074 0.021604601 0.076777697 72
-0.75784796 0.026332129 -0.093108192 69
-0.63568389 0.022198502 0.10074381 43
-0.75067323 0.026214005 -0.065715425 100
-0.71222281 0.024995742 0.13852733 31
-0.7445147 0.026259134 -0.039042629 24
-0.69136864 0.024505639 0.15971525 45
-0.73941839 0.026337799 -0.012914781 100
-0.66413164 0.023772327 0.17806751 20
-1.0617912 0.039305251 -0.28470096 7
-0.75336432 0.028019428 0.013159114 18
-1.1041652 0.041259788 -0.2550945 11
-0.70054442 0.026299961 0.036739845 33
-1.1398479 0.042792365 -0.22172007 8
-0.63312972 0.023879565 0.055431053 66
-1.1843761 0.04487804 -0.18772139 9
-0.6367535 0.024238968 0.078240126 70
-0.76965326 0.029432511 -0.094570614 73
-0.65534168 0.025175635 0.1038725 41
-0.74261355 0.028528273 -0.065018184 31
-0.70820773 0.027330318 0.13776411 31
-0.74841005 0.029012747 -0.039251972 24
-0.6932261 0.026994498 0.16016515 46
-0.74731463 0.029231347 -0.0130544 100
-0.67562681 0.026545519 0.18117334 20
-1.0655081 0.043167543 -0.28573623 7
-0.75326192 0.030649191 0.013159114 18
-1.0884374 0.044477291 -0.25149527 11
-0.70643508 0.028990692 0.037053861 33
-1.1436146 0.046931673 -0.22248329 9
-0.64896804 0.026745964 0.056825541 63
-1.1822387 0.048930358 -0.18740851 9
-0.61881459 0.025719462 0.076046474 63
-0.76954579 0.032118946 -0.094570614 73
-0.66709173 0.027959391 0.10574972 40
-0.74250948 0.031120326 -0.065018184 31
-0.69633889 0.029306782 0.1354744 31
-0.73234034 0.030950189 -0.038414594 24
-0.69507468 0.029496789 0.16061506 45
-0.75320172 0.032095384 -0.013159114 100
-0.66394949 0.028408103 0.17806751 20
-1.0692109 0.047056504 -0.28677151 9
-0.76313907 0.033719759 0.013333639 18
-1.0843819 0.048103426 -0.25059548 11
-0.69834852 0.031101182 0.036635175 28
-1.1454053 0.051011004 -0.22286493 9
-0.64289957 0.028744167 0.056302607 64
-1.184034 0.053145166 -0.18772139 9
-0.62268716 0.028058251 0.076533951 63
-0.76149678 0.034446172 -0.093595661 76
-0.6886968 0.031273358 0.10919127 37
-0.74836731 0.033982959 -0.065541118 31
-0.70211601 0.032005671 0.13661924 30
-0.73023272 0.033415068 -0.038309924 25
-0.69302076 0.031833306 0.16016515 46
-0.74909002 0.034539983 -0.013089306 100
-0.69086331 0.031976022 0.18531445 20
-1.0651808 0.05060539 -0.28573623 9
-0.76101929 0.036287997 0.013298733 19
-1.1036726 0.05281993 -0.2550945 11
-0.71619034 0.034401126 0.037577223 31
-1.1373763 0.054632161 -0.22133845 9
-0.6547358 0.031563625 0.057348479 62
-1.177922 0.05699154 -0.18678276 9
-0.64241296 0.031194473 0.078971341 60
-0.75938916 0.037007298 -0.093351923 83
-0.67871833 0.033194866 0.10762692 46
-0.75620413 0.036984555 -0.066238366 100
-0.71376538 0.035033818 0.13890895 28
-0.7341013 0.036160398 -0.038519271 23
-0.68317366 0.033771317 0.15791564 40
-0.73498416 0.036461055 -0.012844971 100
-0.67724127 0.033715032 0.18169098 18
-1.0611389 0.054126203 -0.28470096 7
-0.76088798 0.038944252 0.013298733 100
-1.1073737 0.056872342 -0.25599429 11
-0.72603893 0.037414674 0.038100582 35
-1.129336 0.058197625 -0.21981198 9
-0.64268321 0.033231601 0.056302607 53
-1.1895523 0.061717324 -0.18866 9
-0.64626497 0.033642989 0.079458818 59
-0.75925541 0.039657857 -0.093351923 83
-0.67070764 0.035150319 0.10637545 63
-0.74612212 0.039102625 -0.065366805 31
-0.70971763 0.037318949 0.13814571 27
-0.73795956 0.03893296 -0.03872861 23
-0.68499762 0.036258861 0.15836555 36
-0.73684919 0.039132472 -0.012879876 100
-0.67326117 0.035873279 0.1806557 18
-1.0725175 0.058460847 -0.28780681 6
-0.75076389 0.0410541 0.01312421 100
-1.0993853 0.060310241 -0.25419468 11
-0.73786926 0.040607311 0.03872861 35
-1.1310862 0.062247299 -0.22019359 9
-0.65052074 0.035914116 0.056999855 52
-1.1814402 0.065432072 -0.18740851 9
-0.65605384 0.036449283 0.080677517 67
-0.77695048 0.043302301 -0.095545575 71
-0.68241465 0.038152941 0.10825266 61
-0.73802394 0.041261986 -0.064669557 100
-0.70370251 0.039466146 0.13700087 24
-0.74180734 0.04173325 -0.038937956 21
-0.69654071 0.039308548 0.16106495 31
-0.74469423 0.042156242 -0.013019496 100
-0.67506063 0.038332727 0.18117334 17
-1.0684496 0.061980553 -0.28677151 6
-0.75261229 0.043790683 0.013159114 100
-1.0874954 0.063466266 -0.25149527 11
-0.75567538 0.044101235 0.039670657 38
-1.134782 0.066424631 -0.22095683 8
-0.65436935 0.038418356 0.057348479 51
-1.1772606 0.069323458 -0.18678276 9
-0.6420511 0.037919872 0.078971341 60
-0.77877617 0.046131503 -0.095789306 78
-0.69411594 0.041116577 0.11012988 59
-0.74185324 0.044074088 -0.065018184 100
-0.68984205 0.041104883 0.13432954 22
-0.72770125 0.043488383 -0.038205251 18
-0.69639927 0.041739542 0.16106495 30
-0.75053865 0.044984452 -0.01312421 100
-0.6749298 0.040571123 0.18117334 16
-1.0682268 0.065709539 -0.28677151 7
-0.75645477 0.046531592 0.013228924 100
-1.0872791 0.06707222 -0.25149527 11
-0.7475431 0.046245508 0.039251972 39
-1.1463001 0.071115039 -0.22324654 9
-0.67411667 0.041939307 0.059091594 49
-1.1809675 0.073472381 -0.18740851 9
-0.64588428 0.040296022 0.079458818 59
-0.76078796 0.047598213 -0.093595661 83
-0.70382571 0.044157553 0.11169422 65
-0.7516371 0.047288902 -0.065889739 100
-0.70537698 0.044378467 0.13738248 20
-0.72954637 0.046027079 -0.038309924 18
-0.67680854 0.042818274 0.15656593 100
-0.74638563 0.047350854 -0.0130544 100
-0.68249589 0.043417428 0.18324389 16
-1.0602916 0.068751566 -0.28470096 7
-0.75429225 0.049042288 0.01319402 100
-1.0948167 0.071374252 -0.25329489 11
-0.7513631 0.049115032 0.039461315 38
-1.1362625 0.074275106 -0.22133845 9
-0.65608078 0.043001775 0.057522789 51
-1.1905594 0.078242004 -0.18897286 9
-0.65762448 0.043333333 0.080921248 57
-0.77052104 0.05090775 -0.09481436 81
-0.68001461 0.045047253 0.10793979 77
-0.75744027 0.050176281 -0.066412672 100
-0.71305352 0.047361061 0.13890895 100
-0.73336697 0.048838664 -0.038519271 14
-0.69415462 0.046349 0.16061506 100
-0.73823482 0.049421839 -0.012914781 100
-0.68812281 0.046187509 0.18479681 15
-1.0658274 0.072847478 -0.28625387 6
-0.7601015 0.052085102 0.013298733 100
-1.1023376 0.075729467 -0.2550945 11
-0.77310497 0.053247266 0.040612705 39
-1.132079 0.077971444 -0.2205752 9
-0.65990204 0.045566183 0.057871412 41
-1.1922497 0.082533523 -0.18928573 9
-0.66737086 0.046315961 0.082139947 48
-0.76637805 0.053321518 -0.094326884 82
-0.68182379 0.04755814 0.10825266 83
-0.74533516 0.051988147 -0.065366805 100
-0.71288389 0.049849644 0.13890895 100
-0.7491309 0.052515667 -0.039356641 16
-0.69010073 0.048498552 0.15971525 100
-0.73606312 0.051857773 -0.012879876 100
-0.68603027 0.048453137 0.18427916 100
-1.0617129 0.076290838 -0.2852186 6
-0.74595344 0.053732194 0.0130544 100
-1.1059538 0.079857595 -0.25599429 11
-0.79482698 0.057531696 0.041764095 41
-1.1357163 0.082206182 -0.22133845 9
-0.65179026 0.047292672 0.057174165 42
-1.1722527 0.085261814 -0.18615703 9
-0.66918498 0.048789609 0.082383685 40
-0.78796518 0.057588 -0.097008012 75
-0.70135456 0.051381171 0.11138135 79
-0.73720092 0.054007269 -0.064669557 100
-0.70291555 0.051618863 0.13700087 100
-0.74695122 0.054983702 -0.039251972 13
-0.68409687 0.050476976 0.15836555 100
-0.74385464 0.055016816 -0.013019496 100
-0.67429757 0.049990576 0.18117334 100
-1.0652928 0.080286585 -0.28625387 6
-0.74376732 0.056185119 0.013019496 100
-1.0862365 0.082246587 -0.25149527 11
-0.81254512 0.061666112 0.042706143 46
-1.1452106 0.086912945 -0.22324654 8
-0.67943436 0.051683094 0.059614524 38
-1.1798265 0.089954227 -0.18740851 9
-0.67692786 0.051730249 0.083358638 39
-0.79171795 0.060641199 -0.097495481 74
-0.70117092 0.053829063 0.11138135 79
-0.74892712 0.057495315 -0.065715425 100
-0.7007736 0.053921584 0.13661924 100
-0.74277204 0.057283405 -0.039042629 13
-0.70140302 0.054216288 0.16241467 100
-0.75562036 0.058539782 -0.013228924 100
-0.67797107 0.052643131 0.18220863 100
-1.0765613 0.08491613 -0.28935969 9
-0.74954706 0.059253801 0.01312421 100
-1.0937134 0.086653449 -0.25329489 11
-0.794406 0.063079044 0.041764095 45
-1.1468573 0.091065094 -0.22362815 9
-0.683222 0.054370739 0.059963148 38
-1.1972275 0.095485516 -0.19022433 9
-0.67080688 0.053618215 0.082627423 40
-0.77567142 0.062136564 -0.095545575 78
-0.70688587 0.056750536 0.11231996 78
-0.76460987 0.06138476 -0.06710992 100
-0.71036577 0.05715451 0.13852733 100
-0.7346043 0.059233911 -0.03862394 12
-0.67984301 0.054937717 0.15746574 94
-0.75541139 0.061176877 -0.013228924 100
-0.69126183 0.05610333 0.18583208 100
-1.068557 0.088039026 -0.28728914 9
-0.75531435 0.062363684 0.013228924 100
-1.0934043 0.090470463 -0.25329489 11
-0.79020011 0.065521598 0.041554753 49
-1.1387062 0.094418928 -0.22210167 9
-0.69692689 0.057910223 0.06118333 36
-1.1968869 0.099663787 -0.19022433 11
-0.67259383 0.056124534 0.082871154 40
-0.77544981 0.064843804 -0.095545575 78
-0.69487262 0.058227826 0.11044274 81
-0.76439101 0.064053215 -0.06710992 95
-0.70624924 0.059305437 0.13776411 100
-0.73837358 0.062132765 -0.038833283 12
-0.69323999 0.05845654 0.16061506 99
-0.73725992 0.06229822 -0.012914781 100
-0.69106179 0.058515962 0.18583208 100
-1.0566946 0.090776138 -0.28418332 7
-0.75708443 0.06517119 0.013263829 99
-1.0969648 0.094621576 -0.25419468 11
-0.79792595 0.068967678 0.041973442 48
-1.1383697 0.098393485 -0.22210167 9
-0.70069045 0.060686287 0.061531954 36
-1.1925957 0.10349954 -0.18959859 9
-0.70008057 0.060879834 0.086283498 29
-0.77521873 0.067550071 -0.095545575 78
-0.69269729 0.060481224 0.11012988 81
-0.76217782 0.066547751 -0.066935606 95
-0.71386105 0.062454794 0.13929057 95
-0.75406915 0.066104986 -0.039670657 100
-0.69497293 0.061046578 0.16106495 90
-0.73703796 0.064871378 -0.012914781 100
-0.68123138 0.060079139 0.18324389 100
-1.052523 0.094120294 -0.28314805 9
-0.75486058 0.067635074 0.013228924 89
-1.1160374 0.10019264 -0.25869372 11
-0.81160492 0.073004901 0.042706143 42
-1.1419301 0.10271808 -0.22286493 9
-0.68459958 0.061701056 0.060137462 19
-1.1941946 0.10783954 -0.18991147 9
-0.7077719 0.064038575 0.087258458 29
-0.78881711 0.071510263 -0.097251743 74
-0.71018744 0.064507216 0.1129457 63
-0.75400406 0.068487138 -0.066238366 99
-0.71363866 0.0649461 0.13929057 95
-0.76576787 0.069824986 -0.040298689 100
-0.69863695 0.063826896 0.16196476 73
-0.75871211 0.06944865 -0.013298733 100
-0.67524618 0.061927442 0.18169098 100
-1.0598823 0.098508865 -0.2852186 9
-0.7526288 0.070084229 0.01319402 77
-1.092397 0.10191549 -0.25329489 11
-0.81731087 0.076395139 0.043020159 41
-1.145474 0.10706898 -0.22362815 9
-0.69628227 0.065205008 0.06118333 9
-1.1898773 0.11163837 -0.18928573 9
-0.71149677 0.066880338 0.087745935 28
-0.78460991 0.073891088 -0.096764266 75
-0.71979117 0.06791348 0.11451004 55
-0.76169467 0.071867138 -0.066935606 95
-0.70363492 0.066513002 0.13738248 61
-0.74762422 0.07080286 -0.039356641 100
-0.70811003 0.067185402 0.16421427 78
-0.7644372 0.072664335 -0.013403447 96
-0.68079537 0.06483373 0.18324389 100
-1.0672235 0.10294995 -0.28728914 7
-0.76233178 0.0736726 0.013368543 53
-1.0881553 0.1053525 -0.25239509 11
-0.81306332 0.078862004 0.042810816 37
-1.1548637 0.11201447 -0.22553624 9
-0.68415213 0.06647896 0.060137462 9
-1.1776839 0.11464284 -0.18740851 13
-0.69940466 0.06820748 0.086283498 22
-0.78237158 0.076436438 -0.096520528 70
-0.72741359 0.071195289 0.11576151 33
-0.77135378 0.075495921 -0.067807168 92
-0.71707565 0.070309818 0.14005381 58
-0.74538487 0.0732169 -0.039251972 100
-0.70011377 0.068893425 0.16241467 64
-0.76417893 0.075332306 -0.013403447 80
-0.6863324 0.067779183 0.18479681 63
-1.0591687 0.10590558 -0.2852186 9
-0.76803917 0.076931298 0.013473257 52
-1.0955368 0.1099285 -0.25419468 11
-0.8187449 0.082298741 0.043124832 33
-1.1427453 0.11486667 -0.22324654 9
-1.7464634 0.1758596 0.15356842 4
-1.1910343 0.12014081 -0.18959859 11
-0.69323719 0.070049584 0.085552283 15
-0.78605002 0.079566814 -0.097008012 68
-0.7192995 0.072936915 0.11451004 13
-0.77108556 0.078188017 -0.067807168 92
-0.71682584 0.072812475 0.14005381 46
-0.7570467 0.077031448 -0.039880004 100
-0.68629807 0.069953606 0.15926534 41
-0.75396448 0.076983906 -0.013228924 67
-0.70338809 0.071943648 0.18945555 59
-1.0587926 0.10960216 -0.2852186 9
-0.78168911 0.081055544 0.013717591 50
-1.1028997 0.11455706 -0.25599429 11
-0.83633149 0.087016627 0.04406688 30
-1.1364791 0.11824567 -0.22210167 9
-1.7319673 0.18050915 0.15234824 4
-1.1984664 0.12511776 -0.19085006 11
-0.7423467 0.077630818 0.091645755 6
-0.79366463 0.083137415 -0.097982958 53
-1.9783437 0.2075827 0.31505907 1
-0.76684493 0.080463134 -0.067458548 100
-0.71266234 0.074903809 0.13929057 11
-0.76074576 0.080091812 -0.040089346 100
-0.68604976 0.072348669 0.15926534 33
-0.75170261 0.07940504 -0.01319402 67
-0.70697492 0.074805059 0.19049083 47
-1.0584035 0.11329764 -0.2852186 9
-0.76350671 0.081864782 0.013403447 43
-1.1102434 0.11923861 -0.2577939 13
-0.84396577 0.090789951 0.044485565 33
-1.1399635 0.12263202 -0.22286493 9
-1.7273649 0.1861265 0.15199961 4
-1.1823108 0.12760474 -0.18834713 11
-1.8729403 0.2024743 0.23130804 2
-0.80718446 0.087403044 -0.099689126 37
-2.0011733 0.21704362 0.31881347 2
-0.7625978 0.082709976 -0.06710992 100
-2.184032 0.23726182 0.42703056 1
-0.76641816 0.083394811 -0.040403362 100
-0.7303502 0.079599358 0.16961309 7
-0.75142086 0.082028508 -0.01319402 67
-0.71823192 0.07853213 0.19359665 11
-1.0656822 0.11784055 -0.28728914 9
-0.77911669 0.086290471 0.013682687 40
-1.0962625 0.12160965 -0.2546446 11
-0.84165877 0.093514659 0.044380896 16
-1.1512359 0.12791103 -0.22515462 9
-1.7385856 0.19347721 0.15304548 5
-1.1818581 0.1317313 -0.18834713 11
-1.8702493 0.20879021 0.2310643 3
-0.80884731 0.090440728 -0.099932872 36
-2.0043297 0.22446746 0.3194392 4
-0.77220446 0.08648017 -0.067981474 92
-2.1519742 0.24138214 0.42092466 2
-0.76016814 0.085400686 -0.040089346 100
-2.3606174 0.26562011 0.54843068 1
-0.7670269 0.086442359 -0.013473257 59
-2.5358727 0.28623646 0.68379998 4
-1.0614256 0.12112173 -0.28625387 9
-0.78675777 0.089917853 0.013822306 39
-1.0861509 0.12432726 -0.25239509 11
-0.79370487 0.090992495 0.041868769 8
-1.1429805 0.13103442 -0.22362815 9
-1.7477967 0.20068166 0.15391703 5
-1.1931658 0.13720974 -0.19022433 11
-1.8675369 0.21509023 0.23082055 4
-0.79669452 0.091898955 -0.098470435 32
-2.0015719 0.2312354 0.31912637 4
-0.76596028 0.088489018 -0.067458548 94
-2.1706212 0.25114903 0.42474085 2
-0.74200952 0.085984707 -0.039147299 100
-2.3364468 0.27116272 0.54303181 2
-0.76672047 0.08911927 -0.013473257 59
-2.5521281 0.29709706 0.68845868 5
-1.0648335 0.12527753 -0.28728914 9
-0.7983548 0.094067618 0.014031734 37
-1.0934514 0.12903139 -0.25419468 13
-1.6343678 0.19315079 0.086249664 5
-1.1405666 0.13479298 -0.22324654 9
-1.7470855 0.20678101 0.15391703 5
-1.1966027 0.14183889 -0.19085006 13
-1.8746598 0.22254394 0.2317955 4
-0.81213862 0.096554048 -0.10042035 24
-2.0046754 0.2386879 0.3197521 4
-0.77949566 0.09281113 -0.068678722 75
-2.1502366 0.25640038 0.42092466 4
-0.75757021 0.090468943 -0.039984677 100
-2.3258114 0.27815923 0.54078233 3
-0.75449169 0.09036842 -0.013263829 50
-2.5645022 0.30761448 0.69208211 5
-1.0567185 0.12806384 -0.2852186 9
-0.80993241 0.098299421 0.014241164 44
-1.094929 0.13308264 -0.2546446 11
-1.6456143 0.20001543 0.086877696 5
-1.1361912 0.13829906 -0.22248329 9
-1.7423974 0.21239609 0.15356842 5
-1.2098262 0.14769059 -0.19304016 12
-1.8876646 0.23077266 0.23350169 4
-0.95957512 0.11748092 -0.11870075 7
-1.9960299 0.24437423 0.31850061 4
-0.769279 0.094319209 -0.067807168 78
-2.1571229 0.26486161 0.42245111 4
-0.77310842 0.095062643 -0.040822048 100
-2.336431 0.28770521 0.54348177 3
-0.77006549 0.094824903 -0.013543067 36
-2.5442948 0.31375268 0.68690574 7
-1.060099 0.13223019 -0.28625387 9
-0.82349217 0.10271733 0.014485498 41
-1.0964153 0.13695441 -0.2550945 11
-1.6528333 0.20674974 0.087296382 5
-1.1395978 0.14275236 -0.22324654 9
-1.7455993 0.21897294 0.15391703 5
-1.1975695 0.15022652 -0.19116293 13
-1.8770409 0.23579364 0.232283 5
-1.2290113 0.1546064 -0.15209295 5
-1.9990846 0.25183403 0.31912637 4
-0.76894504 0.097004116 -0.067807168 57
-2.144546 0.27053919 0.42016143 4
-0.75891834 0.095873602 -0.040089346 100
-2.3393309 0.29594076 0.54438156 2
-0.7875843 0.09977445 -0.013857211 24
-2.5489335 0.32336086 0.68845868 7
-1.0634871 0.13623588 -0.28728914 7
-0.80726105 0.10355575 0.014206259 45
-1.0862664 0.13953911 -0.25284499 11
-1.6560634 0.21302801 0.087505728 5
-1.1508013 0.14803353 -0.22553624 9
-1.7409114 0.22425131 0.15356842 5
-1.1754873 0.15162586 -0.18772139 11
-1.8643938 0.24081898 0.23082055 5
-1.2678381 0.16398837 -0.15696773 5
-2.0099473 0.26033255 0.32100356 4
-0.7725535 0.10020003 -0.068155795 42
-2.1474824 0.27852803 0.42092466 4
-0.76055968 0.098779395 -0.040194016 75
-2.3537433 0.30611488 0.54798079 3
-0.79119718 0.10303935 -0.01392702 19
-2.5592833 0.33375531 0.6915645 7
-1.0668113 0.14063759 -0.28832445 9
-0.82672018 0.1089864 0.014555307 24
-1.0915685 0.14409515 -0.25419468 11
-1.6394695 0.21671367 0.086668357 5
-1.1405195 0.1509621 -0.22362815 9
-1.7519284 0.23220129 0.15461428 5
-1.1925476 0.15827252 -0.1905372 13
-1.8753489 0.24889256 0.232283 5
-1.2534833 0.16658211 -0.15526156 9
-2.0090263 0.26734751 0.32100356 4
-0.83934665 0.11184363 -0.074082382 21
-2.1620152 0.28847432 0.42397761 4
-0.75821286 0.10130185 -0.040089346 75
-2.3410163 0.31318986 0.54528135 3
-0.7848866 0.10500505 -0.013822306 10
-2.5638468 0.34345642 0.69311744 7
-1.0663139 0.14436063 -0.28832445 9
-0.76488638 0.10368864 0.013473257 42
-1.1006882 0.1494056 -0.25644422 13
-1.638703 0.22243482 0.086668357 5
-1.1438763 0.15547118 -0.22439139 9
-1.7491331 0.23804663 0.15443997 5
-1.1998171 0.16350095 -0.19178867 12
-1.8724573 0.25549558 0.23203924 4
-1.2587647 0.17198172 -0.15599278 9
-2.000252 0.27328917 0.3197521 4
-1.308764 0.17904565 -0.11556852 4
-2.1726658 0.29761815 0.42626733 4
-0.73806733 0.10123386 -0.039042629 16
-2.3360476 0.32082942 0.54438156 3
-0.79442078 0.10910461 -0.01399683 4
-2.5626323 0.35240391 0.69311744 7
-1.0581495 0.14701848 -0.28625387 9
-1.5429415 0.21437511 0.027190849 6
-1.1059772 0.15386036 -0.2577939 11
-1.6418729 0.22870475 0.086877696 5
-1.1316601 0.15783623 -0.22210167 9
-1.7403984 0.24304858 0.15374273 4
-1.2031809 0.16802555 -0.1924144 12
-1.8755317 0.26225331 0.23252673 4
-1.2660512 0.177256 -0.15696773 9
-1.9953735 0.27972129 0.31912637 4
-1.3199693 0.18527436 -0.11661438 6
-2.1755552 0.30536667 0.42703056 4
-0.75750577 0.1064605 -0.040089346 15
-2.3311114 0.32803121 0.54348177 3
-1.4514407 0.204503 -0.025585229 4
-2.5594735 0.36107722 0.69259977 7
-1.057656 0.15052664 -0.28625387 7
-1.5362445 0.21891338 0.027086135 7
-1.0996459 0.15689428 -0.25644422 11
-1.6529276 0.23612931 0.087505728 5
-1.1427916 0.16325372 -0.22439139 10
-1.7435277 0.24938291 0.15409136 4
-1.1928099 0.17082396 -0.19085006 11
-1.8746048 0.26879862 0.23252673 4
-1.2673898 0.18195641 -0.15721147 9
-2.0100269 0.28893277 0.32162929 4
-1.3154033 0.18908359 -0.11626577 7
-2.1705894 0.31240013 0.42626733 4
-1.3837878 0.19940691 -0.073270351 4
-2.3453822 0.33839214 0.54708099 2
-1.4606136 0.21099813 -0.025759753 5
-2.5429018 0.36779699 0.68845868 8
-1.0647708 0.15533318 -0.28832445 7
-1.5354711 0.22427458 0.027086135 7
-1.087522 0.15903991 -0.25374478 11
-1.650117 0.24160875 0.087401055 5
-1.1422148 0.16724212 -0.22439139 9
-1.7406752 0.25517806 0.15391703 5
-1.1922063 0.17498662 -0.19085006 11
-1.865799 0.27418661 0.23155177 4
-1.264783 0.18609008 -0.15696773 9
-2.0050976 0.29537159 0.32100356 4
-1.3245908 0.19512592 -0.11713732 7
-2.1539478 0.3176834 0.42321438 4
-1.3949382 0.20598632 -0.073898375 7
-2.3480422 0.34714705 0.54798079 3
-1.4658028 0.21697386 -0.025864467 5
-2.5568907 0.37893629 0.69259977 7
-1.0680432 0.15962009 -0.28935969 9
-1.5346788 0.22963305 0.027086135 7
-1.0831058 0.16225745 -0.25284499 11
-1.6473317 0.24678276 0.087296382 5
-1.1455071 0.17181034 -0.22515462 9
-1.747655 0.26243612 0.15461428 5
-1.1954951 0.17973484 -0.19147581 10
-1.8687565 0.28128833 0.23203924 5
-1.2680848 0.19087422 -0.15745521 9
-2.0197337 0.30437413 0.3235065 4
-1.3357222 0.20153224 -0.11818319 9
-2.1528258 0.32519969 0.42321438 4
-1.3803872 0.20876375 -0.073165677 7
-2.3353171 0.35318318 0.54528135 3
-1.4611208 0.22123474 -0.025794657 6
-2.5747201 0.39030874 0.69777614 7
-1.0636888 0.16257727 -0.28832445 9
-1.5378623 0.23532599 0.027155945 6
-1.0979719 0.16820915 -0.25644422 11
-1.6386074 0.25103441 0.086877696 5
-1.1391094 0.17471515 -0.22400977 9
-1.7585911 0.27004462 0.15566015 5
-1.1968451 0.18399818 -0.19178867 12
-1.8756614 0.28869179 0.2330142 4
-1.2674448 0.19507834 -0.15745521 9
-2.0069993 0.30926517 0.32162929 4
-1.3350465 0.20596029 -0.11818319 9
-2.1672575 0.33473438 0.42626733 4
-1.3935038 0.21547662 -0.073898375 7
-2.3302815 0.36032996 0.54438156 3
-1.4564269 0.22546698 -0.025724847 5
-2.575321 0.39914069 0.69829381 6
-1.0631438 0.16610348 -0.28832445 7
-1.5410248 0.24104254 0.027225753 6
-1.0974082 0.17184928 -0.25644422 11
-1.6456138 0.25799012 0.087296382 5
-1.1288259 0.17697102 -0.22210167 9
-1.7399713 0.27309451 0.15409136 5
-1.2001312 0.18857935 -0.1924144 12
-1.8786157 0.29552716 0.23350169 4
-1.2667562 0.19950138 -0.15745521 9
-1.9941999 0.31442317 0.3197521 4
-1.3225478 0.20852457 -0.11713732 9
-2.1738927 0.34314397 0.4277938 4
-1.4046183 0.221967 -0.074526407 7
-2.344408 0.37089816 0.54798079 3
-1.4477307 0.22929788 -0.025585229 6
-2.5643718 0.40661514 0.69570565 7
-1.0472963 0.16737482 -0.28418332 9
-1.5401741 0.24641994 0.027225753 6
-1.1044983 0.17691174 -0.2582438 11
-1.6525913 0.26499817 0.087715074 5
-1.1417708 0.1830865 -0.22477302 9
-1.73704 0.27885073 0.15391703 5
-1.195565 0.19214031 -0.19178867 12
-1.8893319 0.30397496 0.23496412 4
-1.2778111 0.20581602 -0.15891764 9
-2.0281937 0.32704222 0.32538372 4
-1.3218119 0.21313956 -0.11713732 7
-2.1571763 0.3482272 0.42474085 4
-1.3979199 0.22591284 -0.074212395 7
-2.3392515 0.37845698 0.54708099 3
-1.4508693 0.23498948 -0.025655037 5
-2.5553088 0.41432723 0.69363505 8
-1.058145 0.17289875 -0.28728914 10
-1.5432515 0.25244033 0.027295565 6
-1.0807965 0.17698731 -0.25284499 11
-1.6477615 0.26983142 0.087505728 5
-1.1411248 0.18707095 -0.22477302 9
-1.7557172 0.28813869 0.15566015 5
-1.1909884 0.19567224 -0.19116293 13
-1.8765068 0.30863515 0.23350169 4
-1.2731675 0.20962988 -0.15843016 9
-2.0095558 0.33087787 0.32256791 4
-1.3249913 0.21840066 -0.11748594 7
-2.1714442 0.35831222 0.4277938 4
-1.3892406 0.22948875 -0.073793709 7
-2.3417614 0.38725615 0.54798079 3
-1.4579737 0.24110453 -0.025794657 5
-2.5691681 0.42532295 0.69777614 7
-1.0575351 0.1765911 -0.28728914 9
-1.5424058 0.25755662 0.027295565 6
-1.0878921 0.18185537 -0.2546446 11
-1.6428698 0.27492231 0.087296382 5
-1.1482099 0.19235031 -0.22629949 9
-1.7547005 0.29426557 0.15566015 5
-1.1903329 0.19962038 -0.19116293 13
-1.8754729 0.31485626 0.23350169 4
-1.2626772 0.21220577 -0.15721147 7
-2.0220246 0.3401852 0.32475799 4
-1.3301153 0.22401716 -0.11800887 7
-2.1741157 0.36616316 0.42855701 4
-1.3943803 0.23509057 -0.074107721 7
-2.3443074 0.39566827 0.54888058 2
-1.459095 0.24652551 -0.025829561 6
-2.567668 0.43428788 0.69777614 7
-1.0645612 0.18139507 -0.28935969 9
-1.5493823 0.26428401 0.027435182 6
-1.0834086 0.18499598 -0.25374478 11
-1.6458375 0.28132799 0.087505728 5
-1.1359545 0.19417214 -0.22400977 9
-1.7458597 0.29873866 0.15496291 5
-1.1993641 0.2054421 -0.1927273 14
-1.8665365 0.32005861 0.23252673 4
-1.2580156 0.21594039 -0.15672398 7
-2.0091438 0.34523419 0.32288077 4
-1.3274015 0.22808939 -0.11783457 9
-2.1728244 0.37374958 0.42855701 4
-1.3974879 0.24063431 -0.074317068 7
-2.3390713 0.40318707 0.54798079 2
-1.452314 0.25059685 -0.025724847 5
-2.5775583 0.44522169 0.70088202 7
-1.0601152 0.18444774 -0.28832445 9
-1.5484505 0.26969045 0.027435182 6
-1.1019541 0.19212352 -0.2582438 11
-1.6369754 0.28569782 0.087087035 5
-1.1372038 0.19847375 -0.22439139 9
-1.7487316 0.3055169 0.15531152 5
-1.2044771 0.21064804 -0.19366589 12
-1.8849614 0.3299953 0.23496412 4
-1.2611649 0.22101605 -0.15721147 9
-2.004035 0.35156223 0.32225505 4
-1.316785 0.23099989 -0.116963 9
-2.186976 0.38404846 0.43160996 4
-1.4104089 0.2479319 -0.075049765 8
-2.3338113 0.41067356 0.54708099 3
-1.4533997 0.25601175 -0.025759753 6
-2.5721834 0.45354548 0.69984674 7
-1.0594649 0.18814713 -0.28832445 7
-1.5435619 0.27439433 0.027365373 6
-1.1012768 0.19596893 -0.2582438 11
-1.6516987 0.29421225 0.087924413 5
-1.1403698 0.20313074 -0.22515462 9
-1.7476546 0.31161928 0.15531152 5
-1.1862326 0.21172737 -0.19085006 11
-1.883798 0.33657309 0.23496412 4
-1.2584317 0.22506723 -0.15696773 9
-2.0144625 0.36064419 0.32413223 4
-1.3198931 0.23629718 -0.11731163 9
-2.1778922 0.39029494 0.43008351 4
-1.3977396 0.2507374 -0.074421734 7
-2.3515441 0.42226186 0.55158001 3
-1.4584017 0.26214525 -0.025864467 6
-2.5591767 0.46046814 0.69674093 8
-1.0588018 0.191844 -0.28832445 9
-1.5386595 0.27906704 0.027295565 6
-1.090999 0.19807139 -0.25599429 11
-1.6428013 0.29854757 0.087505728 5
-1.1473802 0.2085143 -0.2266811 9
-1.7426356 0.31700471 0.15496291 5
-1.1893733 0.21657461 -0.19147581 10
-1.8787059 0.34243488 0.23447664 4
-1.2732611 0.23230904 -0.15891764 9
-2.0170779 0.36838368 0.32475799 4
-1.3190602 0.24090308 -0.11731163 9
-2.1687915 0.39648262 0.42855701 4
-1.3929267 0.25489593 -0.074212395 7
-2.3462222 0.42976555 0.55068022 2
-1.4535439 0.26651281 -0.025794657 6
-2.5727546 0.4721885 0.70088202 7
-1.0543261 0.19483687 -0.28728914 9
-1.537676 0.28443629 0.027295565 6
-1.078804 0.19974951 -0.25329489 11
-1.6456769 0.30500817 0.087715074 5
-1.1427847 0.21180262 -0.22591786 9
-1.761108 0.32672003 0.15670602 5
-1.1963788 0.22216737 -0.1927273 10
-1.8696923 0.34753963 0.23350169 4
-1.2665876 0.23566283 -0.15818642 9
-2.0274312 0.37759241 0.32663518 4
-1.3358397 0.24878918 -0.11888044 9
-2.1789744 0.40620956 0.43084675 4
-1.399882 0.26122209 -0.07463108 7
-2.3408761 0.4372372 0.54978037 3
-1.4643986 0.27379009 -0.026004087 5
-2.586282 0.48400924 0.70502311 7
-1.0650303 0.20066214 -0.29039499 9
-1.546499 0.29165465 0.027470089 6
-1.0915046 0.20604469 -0.25644422 11
-1.6485271 0.3114925 0.087924413 5
-1.1381801 0.21506141 -0.22515462 9
-1.759957 0.33286506 0.15670602 5
-1.2014185 0.22744478 -0.19366589 12
-1.8762693 0.35554236 0.23447664 4
-1.2638069 0.23971239 -0.15794268 9
-2.0222197 0.38393036 0.32600945 4
-1.325176 0.25159252 -0.11800887 6
-2.1852579 0.41527927 0.4323732 4
-1.3930753 0.26498705 -0.074317068 7
-2.3431647 0.44613478 0.55068022 3
-1.4516479 0.27665398 -0.025794657 5
-2.5788836 0.49194878 0.70347023 8
-1.0529402 0.20219247 -0.28728914 7
-1.5513628 0.29818356 0.027574802 6
-1.1060878 0.2127988 -0.26004341 11
-1.6356626 0.31497866 0.087296382 5
-1.1297112 0.21754788 -0.22362815 9
-1.7548715 0.33825231 0.15635739 5
-1.2064362 0.23275982 -0.1946045 12
-1.8828132 0.36359477 0.23545158 4
-1.2668606 0.24487627 -0.15843016 9
-2.0131097 0.38948604 0.32475799 4
-1.3262458 0.25659519 -0.11818319 9
-2.1992147 0.42589036 0.43542615 4
-1.4039063 0.27212897 -0.074945092 6
-2.3301146 0.45208427 0.54798079 2
-1.4545995 0.28248161 -0.025864467 5
-2.5695653 0.4994728 0.70139962 8
-1.0560199 0.20660859 -0.28832445 9
-1.5346131 0.30052304 0.027295565 6
-1.109163 0.21740794 -0.26094323 11
-1.6423926 0.32222438 0.087715074 5
-1.136651 0.22300188 -0.22515462 9
-1.7497699 0.3436085 0.15600878 5
-1.1862334 0.23315959 -0.19147581 10
-1.8854281 0.37093124 0.23593907 4
-1.2737888 0.25083113 -0.15940511 9
-2.0117378 0.3965103 0.32475799 4
-1.3233874 0.26083753 -0.11800887 9
-2.1668966 0.42748472 0.42932025 4
-1.4068668 0.27780172 -0.075154446 6
-2.3514636 0.46474877 0.5533796 3
-1.4575278 0.28833392 -0.025934275 5
-2.5791767 0.51069063 0.70450544 8
-1.0591182 0.21086378 -0.28935969 9
-1.5336081 0.30561003 0.027295565 6
-1.0816807 0.21574838 -0.2546446 11
-1.6491497 0.32923311 0.08813376 5
-1.1474569 0.22907612 -0.22744434 9
-1.7486209 0.34940913 0.15600878 5
-1.1893277 0.23786685 -0.19210154 10
-1.8686159 0.37406436 0.23398916 4
-1.2632179 0.25310388 -0.15818642 9
-2.0220325 0.40550983 0.32663518 4
-1.3244221 0.26584756 -0.11818319 9
-2.1731668 0.43621367 0.43084675 4
-1.3922309 0.27971172 -0.074421734 7
-2.3460884 0.47177571 0.5524798 3
-1.4722466 0.29632193 -0.026213516 7
-2.5793629 0.51962233 0.70502311 9
-1.0621248 0.21551259 -0.29039499 9
-1.5442905 0.3133474 0.027504994 6
-1.0904697 0.22146212 -0.25689411 11
-1.6440758 0.33419204 0.087924413 5
-1.1446857 0.23288882 -0.22706272 9
-1.7609949 0.35859835 0.15722896 5
-1.1865124 0.24182987 -0.19178867 10
-1.8634084 0.37979195 0.23350169 4
-1.2642719 0.25790828 -0.15843016 9
-2.0283465 0.41414639 0.3278867 4
-1.3273901 0.27126721 -0.1185318 7
-2.1792467 0.44574946 0.4323732 4
-1.3892397 0.28441173 -0.074317068 7
-2.3424344 0.47998083 0.55202991 4
-1.4672853 0.30065677 -0.026143704 7
-2.5832102 0.52978718 0.70657599 10
-1.0689336 0.22078185 -0.29246551 9
-1.5548813 0.32143438 0.027714422 6
-1.0915589 0.22585227 -0.25734401 11
-1.6350758 0.33831024 0.087505728 5
-1.1304085 0.23409627 -0.22439139 9
-1.7616833 0.36514759 0.15740328 5
-1.1992003 0.24877892 -0.19397876 12
-1.8736658 0.38904059 0.23496412 4
-1.2613745 0.26213646 -0.15818642 7
-2.0114162 0.41800869 0.32538372 4
-1.3303365 0.27671054 -0.11888044 7
-2.1853659 0.45495442 0.4338997 4
-1.392149 0.2900742 -0.074526407 7
-2.3350215 0.48696104 0.55068022 3
-1.4505663 0.30251083 -0.025864467 5
-2.5851281 0.53959006 0.70761132 11
-1.0605944 0.22292237 -0.29039499 9
-1.549893 0.32576621 0.027644612 6
-1.1003391 0.2314764 -0.25959352 11
-1.6417025 0.34566173 0.087924413 5
-1.13919 0.24006492 -0.22629949 9
-1.7564989 0.37047204 0.15705465 5
-1.2003018 0.25316167 -0.19429164 10
-1.8956728 0.40017197 0.23788899 4
-1.2702094 0.2683697 -0.15940511 9
-2.0118771 0.42543647 0.32569659 4
-1.3196164 0.2792896 -0.11800887 7
-2.1838453 0.46219891 0.4338997 4
-1.4009489 0.29675865 -0.075049765 8
-2.3562701 0.49955165 0.55607903 2
-1.4631946 0.31047761 -0.0261088 6
-2.5775595 0.54740661 0.70605838 11
-1.0560708 0.22563095 -0.28935969 9
-1.5370135 0.32866514 0.027435182 6
-1.0976187 0.23490836 -0.25914362 11
-1.6542186 0.3540298 0.088657118 6
-1.1403072 0.24425252 -0.2266811 9
-1.7474682 0.37462428 0.15635739 5
-1.1936164 0.25610703 -0.19335303 10
-1.8826194 0.40428597 0.23642655 4
-1.2615018 0.27113315 -0.15843016 9
-2.0278373 0.43584073 0.32851243 4
-1.3206308 0.28408313 -0.11818319 9
-2.17838 0.46899277 0.43313646 4
-1.4077144 0.30332959 -0.075468451 6
-2.3697517 0.51105958 0.55967826 3
-1.4523832 0.31322029 -0.025934275 5
-2.5795066 0.55676633 0.70709366 11
-1.0552768 0.22931574 -0.28935969 9
-1.5359151 0.33376032 0.027435182 6
-1.0835041 0.23564766 -0.25599429 11
-1.6549243 0.36022681 0.088761792 6
-1.1452025 0.24948488 -0.22782594 9
-1.7442033 0.38029784 0.15618308 4
-1.1831104 0.25795978 -0.19178867 10
-1.8773896 0.40968037 0.23593907 4
-1.2761109 0.27870348 -0.16038008 9
-2.0263033 0.44291708 0.32851243 4
-1.3235238 0.28954285 -0.1185318 7
-2.1959918 0.48040977 0.43695265 4
-1.4008477 0.30671462 -0.075154446 6
-2.3680439 0.51891524 0.55967826 3
-1.4669071 0.32171527 -0.026213516 5
-2.5813212 0.56659555 0.70812893 11
-1.065829 0.23531282 -0.29246551 9
-1.5386461 0.3399826 0.027504994 6
-1.0845778 0.23984946 -0.25644422 11
-1.6497566 0.36513779 0.088552445 5
-1.142452 0.25285694 -0.22744434 9
-1.7604396 0.3899574 0.15775189 5
-1.1918454 0.26422581 -0.19335303 12
-1.879824 0.41709077 0.23642655 4
-1.259627 0.27971366 -0.15843016 9
-2.0286014 0.45084465 0.32913816 4
-1.3322294 0.29632407 -0.11940337 7
-2.1866355 0.48636726 0.43542615 4
-1.3939197 0.31030101 -0.074840426 6
-2.3529034 0.52421176 0.55652893 4
-1.4618715 0.32596338 -0.026143704 7
-2.5887551 0.57770646 0.71071708 11
-1.0611898 0.23837097 -0.29143026 7
-1.541352 0.34622794 0.027574802 6
-1.091339 0.24534334 -0.2582438 11
-1.644575 0.37001753 0.088343106 6
-1.1376868 0.25618026 -0.2266811 9
-1.7512239 0.39465505 0.15705465 5
-1.2043577 0.2716344 -0.1955431 10
-1.8744837 0.42277658 0.23593907 4
-1.2586429 0.28410921 -0.15843016 9
-2.0231619 0.45705256 0.32851243 4
-1.3253571 0.29965422 -0.11888044 6
-2.188668 0.49524501 0.43618938 4
-1.4005648 0.31717244 -0.075259112 6
-2.3452649 0.53153926 0.55517924 3
-1.4724264 0.33371603 -0.026353134 6
-2.5867229 0.58673948 0.71071708 13
-1.0528176 0.24035387 -0.28935969 9
-1.5459211 0.35321122 0.027679518 6
-1.0999311 0.25151366 -0.26049334 11
-1.6549553 0.37842721 0.088971131 5
-1.1367857 0.26014975 -0.2266811 9
-1.75372 0.40165526 0.15740328 5
-1.2053279 0.27627817 -0.19585598 12
-1.8729215 0.42964455 0.23593907 4
-1.2614627 0.28960854 -0.15891764 9
-2.0138528 0.46234342 0.32726091 4
-1.3262446 0.30472526 -0.11905474 7
-2.1907527 0.50376189 0.43695265 4
-1.4150203 0.32564253 -0.07609649 6
-2.343395 0.53972322 0.55517924 3
-1.455663 0.33526361 -0.026073895 5
-2.5846589 0.59576535 0.71071708 15
-1.0482086 0.24315441 -0.28832445 7
-1.5388974 0.35698017 0.027574802 6
-1.1028875 0.2560412 -0.26139313 11
-1.6536242 0.38420221 0.088971131 6
-1.1396952 0.26500559 -0.22744434 9
-1.7445451 0.40596816 0.15670602 5
-1.1870893 0.27624419 -0.19304016 10
-1.8869532 0.43945518 0.23788899 4
-1.2682284 0.29559255 -0.15989259 9
-2.0199218 0.47116527 0.32851243 4
-1.3135315 0.30663532 -0.11800887 7
-2.1814225 0.50923872 0.43542615 4
-1.4061531 0.32851565 -0.075677805 6
-2.3719532 0.55458945 0.56237763 3
-1.458378 0.34125403 -0.026143704 5
-2.5788016 0.60390228 0.70968187 13
-1.0549181 0.24840021 -0.29039499 7
-1.5318028 0.36097381 0.027470089 6
-1.0887101 0.256758 -0.2582438 11
-1.6522731 0.38997173 0.088971131 5
-1.1349887 0.26788157 -0.2266811 9
-1.7664577 0.41724724 0.15879777 5
-1.1861178 0.28038657 -0.19304016 12
-1.8699538 0.44238275 0.23593907 4
-1.2671889 0.30001771 -0.15989259 9
-2.0297976 0.48094636 0.33038962 4
-1.3260784 0.31420502 -0.11922905 7
-2.1758111 0.51594383 0.43466291 4
-1.3952813 0.33111626 -0.075154446 6
-2.3700027 0.56286633 0.56237763 3
-1.46496 0.34819198 -0.026283324 6
-2.5841959 0.61468863 0.71175241 11
-1.0578023 0.25297976 -0.29143026 7
-1.5480363 0.37050742 0.027784232 6
-1.0840169 0.25964916 -0.25734401 11
-1.6431327 0.39387465 0.088552445 5
-1.1455016 0.27458772 -0.22897081 9
-1.7649906 0.42341042 0.15879777 5
-1.1889733 0.28544718 -0.19366589 10
-1.8722584 0.44983497 0.23642655 4
-1.2584136 0.30258289 -0.15891764 9
-2.0319476 0.48895267 0.33101538 4
-1.3249736 0.31883171 -0.11922905 7
-2.1969011 0.52905148 0.43924233 4
-1.3902336 0.33504915 -0.074945092 6
-2.3566573 0.56839383 0.55967826 3
-1.4695673 0.35471115 -0.02638804 6
-2.5933011 0.62642771 0.71485823 11
-1.064422 0.25849402 -0.29350081 9
-1.552563 0.37732559 0.027888944 6
-1.0868909 0.26435262 -0.2582438 11
-1.6378667 0.39866281 0.088343106 5
-1.1407211 0.27765572 -0.22820757 9
-1.7557585 0.42768312 0.15810052 5
-1.1975657 0.291935 -0.19523023 12
-1.8783908 0.45824957 0.2374015 4
-1.2534928 0.30603215 -0.15843016 9
-2.0225527 0.49416715 0.32976389 4
-1.3354654 0.32629216 -0.12027492 7
-2.191227 0.5357843 0.4384791 4
-1.4026358 0.34322268 -0.075677805 6
-2.3546588 0.5766167 0.55967826 3
-1.448898 0.35507903 -0.026038991 6
-2.5835938 0.63363504 0.71278769 11
-1.0485077 0.25850838 -0.28935969 9
-1.5492949 0.38226414 0.02785404 6
-1.1105565 0.27421796 -0.26409253 10
-1.6480988 0.40725237 0.088971131 5
-1.1321212 0.27975208 -0.2266811 9
-1.7619914 0.43572247 0.15879777 5
-1.2042093 0.29801166 -0.1964817 12
-1.8844874 0.46671203 0.23837645 4
-1.2601241 0.31231603 -0.15940511 9
-2.0208154 0.50122422 0.32976389 4
-1.3246493 0.32855368 -0.11940337 7
-2.2122085 0.54910547 0.44305849 4
-1.4072442 0.34956118 -0.075991817 6
-2.3715436 0.58953381 0.56417727 3
-1.4495901 0.36061722 -0.026073895 5
-2.5738678 0.64078289 0.71071708 10
-1.0438509 0.2612291 -0.28832445 9
-1.5363123 0.38475507 0.027644612 6
-1.1039219 0.27667138 -0.26274285 10
-1.6544161 0.41494679 0.089389823 5
-1.1368506 0.28513536 -0.22782594 10
-1.7604598 0.44187036 0.15879777 5
-1.1859189 0.29788199 -0.19366589 10
-1.8847718 0.47377172 0.23862019 4
-1.2705771 0.31961843 -0.16086754 9
-2.0190537 0.50827473 0.32976389 4
-1.3196301 0.33220249 -0.11905474 6
-2.1988556 0.55394655 0.44076881 3
-1.4098887 0.35544783 -0.076201163 6
-2.3656924 0.59685451 0.56327748 2
-1.4580169 0.3681227 -0.02624842 6
-2.5809801 0.65212971 0.71330529 11
-1.0616567 0.26962656 -0.29350081 9
-1.5388361 0.39110029 0.027714422 6
-1.0878404 0.27668035 -0.25914362 11
-1.6529576 0.42071933 0.089389823 5
-1.1472639 0.29200757 -0.23011567 9
-1.7550452 0.44702891 0.15844914 5
-1.1829578 0.30153224 -0.19335303 10
-1.8850302 0.48083863 0.23886393 4
-1.2694536 0.32405138 -0.16086754 9
-2.0325782 0.51923126 0.33226684 4
-1.3203927 0.3373003 -0.11922905 7
-2.1854961 0.55870116 0.4384791 4
-1.3950949 0.35690171 -0.075468451 6
-2.3862486 0.61090904 0.56867629 2
-1.4625343 0.37469882 -0.026353134 5
-2.5824311 0.66209412 0.71434063 11
-1.0569675 0.27236643 -0.29246551 9
-1.5374615 0.39646947 0.027714422 6
-1.0812072 0.27901542 -0.2577939 11
-1.6438178 0.42420223 0.088971131 5
-1.1424359 0.29502842 -0.22935241 9
-1.7746931 0.45863611 0.16036656 5
