# .PCD v0.7 - Point Cloud Data file format
VERSION 0.7
FIELDS x y z intensity
SIZE 4 4 4 4
TYPE F F F F
COUNT 1 1 1 1
WIDTH 1373
HEIGHT 1
VIEWPOINT 0 0 0 1 0 0 0
POINTS 1373
DATA ascii
0.92573506 0.71885049 0.22782594 1
0.84216034 0.65348208 0.24609646 5
0.98280311 0.76234037 -0.021710794 1
1.1831684 0.91742897 0.40116954 16
0.9138121 0.70678419 -0.3095476 12
1.0330411 0.79871327 0.022792844 1
0.78790522 0.60896266 -0.22989999 9
0.94671428 0.73144037 0.062698483 1
0.79077339 0.61095899 -0.19424357 11
1.0028772 0.77455217 0.11086211 1
0.81776106 0.63135415 -0.16363046 16
0.98375821 0.75923872 0.15258044 1
0.83615017 0.64508522 -0.12966898 11
0.94948667 0.73226017 0.18991147 1
0.88351202 0.68137938 -0.097614422 2
0.9313482 0.71801221 0.22858919 1
0.92229569 0.71077609 -0.061023727 1
0.84443617 0.65053862 0.24609646 6
0.97595203 0.75158471 -0.021501366 1
1.1771791 0.9062224 0.39806372 19
0.94078916 0.72241545 -0.31782979 18
1.0231327 0.78536165 0.022513606 1
0.81476289 0.62518948 -0.23709841 9
0.95243096 0.73056257 0.062907822 1
0.78511226 0.60222065 -0.19233547 11
0.9423309 0.72255343 0.10388964 1
0.81839222 0.62729388 -0.16331759 14
0.98640233 0.75580025 0.15258044 1
0.83839667 0.6421628 -0.12966898 11
0.95203716 0.72894114 0.18991147 1
0.86057436 0.65891129 -0.094825447 4
0.92137688 0.70521063 0.22553624 1
0.92477107 0.70755255 -0.061023727 1
0.85753727 0.65587395 0.24924576 6
0.97856981 0.74817318 -0.021501366 1
1.1849396 0.90562725 0.3996166 16
0.99707681 0.76011938 -0.33594716 37
1.0258681 0.78178519 0.022513606 1
0.84949374 0.64714104 -0.24654636 11
0.95497555 0.72723329 0.062907822 1
0.80282903 0.61137062 -0.19615164 9
0.97655356 0.7433961 0.10737588 1
0.81428885 0.61964858 -0.16206612 16
0.98903471 0.75235224 0.15258044 1
0.84379339 0.64163566 -0.13015647 11
0.95457572 0.72561365 0.18991147 1
0.85493827 0.64987499 -0.093953893 9
0.94259083 0.71624392 0.23011567 1
0.92723513 0.70432031 -0.061023727 1
0.87378949 0.66348302 0.25329489 5
1.035331 0.78585941 -0.022688128 1
1.1742426 0.89097619 0.39495787 19
1.0120475 0.76596075 -0.34008822 60
1.0222117 0.77337372 0.022373985 1
0.86107337 0.65122449 -0.24924576 11
0.96069485 0.72630411 0.063117169 1
0.80809063 0.61093235 -0.1969149 8
1.0109327 0.7640084 0.11086211 1
0.8038379 0.60727632 -0.15956318 14
0.99165511 0.74889499 0.15258044 1
0.8444435 0.63749051 -0.12991273 12
1.0138668 0.76511371 0.20117474 1
0.86038232 0.64928675 -0.094302505 11
0.92000848 0.6940316 0.22400977 1
0.92968786 0.70107961 -0.061023727 1
0.89166158 0.67215925 0.2577939 5
0.98376924 0.74132323 -0.021501366 1
1.1866038 0.89384627 0.39806372 19
1.0193483 0.76590502 -0.34164116 69
1.0153118 0.76259494 0.022164557 1
0.9116509 0.68448699 -0.26319274 12
0.94086075 0.70616162 0.061651766 1
0.81806898 0.61400044 -0.19882299 6
1.0135937 0.76047462 0.11086211 1
0.8138541 0.61039299 -0.16112752 12
0.99426299 0.74542916 0.15258044 1
0.83554429 0.62620515 -0.12820657 12
1.060797 0.79473346 0.20993507 1
0.86583257 0.648669 -0.09465114 12
0.9444254 0.7072922 0.22935241 3
0.87776875 0.6571331 -0.057464886 1
0.87996042 0.65853429 0.25374478 6
0.93831414 0.701949 -0.02045422 1
1.1912639 0.89085537 0.39858136 10
1.0111762 0.75425643 -0.3380177 46
1.0243797 0.7638278 0.022304177 1
0.98746973 0.73603773 -0.28433815 26
0.96574205 0.71957952 0.063117169 2
0.8296532 0.61817902 -0.20111269 6
0.99067634 0.73788935 0.10807312 1
0.81756413 0.60872829 -0.16144039 10
0.99685919 0.74195373 0.15258044 1
0.83613259 0.62209958 -0.12796283 12
0.87939668 0.65381217 -0.095871314 12
0.94058663 0.69930553 0.22782594 3
0.87364531 0.64929938 -0.057046197 3
0.89320362 0.66359395 0.25689411 6
0.94075888 0.69866914 -0.02045422 1
1.2083267 0.89705533 0.40324008 5
0.95803547 0.70916778 -0.31938273 28
1.0077529 0.74597013 0.021885319 1
1.0213634 0.75576919 -0.29333615 44
0.95700741 0.70789051 0.062384464 2
0.82875603 0.61279976 -0.20034947 6
0.9741475 0.72004223 0.10598138 1
0.81820083 0.60455394 -0.16112752 10
0.99944246 0.7384702 0.15258044 1
0.83989567 0.62035668 -0.12820657 12
0.8640399 0.63772392 -0.093953893 12
0.96526045 0.71217179 0.23316859 4
0.89048547 0.6567626 -0.057988245 8
0.9019044 0.66494077 0.25869372 6
0.93353486 0.68826079 -0.020244792 1
1.20834 0.89053994 0.40220481 4
0.94960809 0.69781125 -0.31575924 33
0.99758703 0.7328009 0.021606078 1
1.0256971 0.75317425 -0.29378608 58
0.97247648 0.71383226 0.063221842 2
0.85621256 0.62849039 -0.20645534 7
1.0119944 0.74256873 0.10981624 1
0.81712061 0.59935731 -0.16050178 8
1.0021429 0.73480135 0.15258044 1
0.85177004 0.62431544 -0.12966898 11
0.86786771 0.63588172 -0.094128199 12
0.94873434 0.69487709 0.22858919 6
0.89116096 0.65247053 -0.057883576 10
0.9167999 0.67099661 0.26229292 5
0.93120944 0.68129253 -0.020140078 2
1.2303082 0.89978993 0.40841648 2
0.95359838 0.6956315 -0.31627688 29
0.97751892 0.71281898 0.021117412 1
1.0109978 0.7369619 -0.28883713 52
0.98626101 0.71866745 0.06395454 2
1.0218302 0.74458599 -0.24576201 9
0.97915059 0.71322387 0.10598138 1
0.8255955 0.60115224 -0.16175325 8
1.0047013 0.7312994 0.15258044 1
0.850734 0.6190024 -0.12918152 10
1.1294361 0.82148737 0.22119835 1
0.86847103 0.6316762 -0.093953893 12
0.94797784 0.68925273 0.22782594 6
0.8805083 0.63996166 -0.057046197 14
0.96485716 0.70100987 0.27534011 6
0.91578358 0.66511238 -0.019756125 4
1.2459477 0.90456992 0.41255757 2
0.96540916 0.69909674 -0.31938273 23
0.98972034 0.71643764 0.02132684 1
0.98356742 0.71172279 -0.28028902 42
0.96436799 0.69782978 0.062384464 2
1.1310015 0.81810737 -0.27133042 14
1.0010087 0.72381061 0.10807312 1
0.84049642 0.60752445 -0.16425622 8
1.007248 0.72778761 0.15258044 1
0.85278189 0.61617798 -0.12918152 9
1.0745057 0.77609855 0.20993507 1
0.87551671 0.63214004 -0.094476826 12
0.96152174 0.69398206 0.23049729 7
0.88111734 0.63571537 -0.056941528 14
1.0193284 0.73543292 0.29018685 6
0.91798431 0.66207159 -0.019756125 8
1.2708791 0.91625035 0.41980451 5
0.95831156 0.68912399 -0.31627688 22
0.96286345 0.69214296 0.020698555 3
0.96693158 0.69481134 -0.27489018 42
0.97803032 0.70278662 0.063117169 2
1.1209521 0.80518913 -0.26827747 15
1.0195874 0.73210824 0.10981624 1
0.88423032 0.63468277 -0.17239079 8
1.0096562 0.7244432 0.15258044 1
0.85643357 0.61450368 -0.12942526 5
1.0770733 0.77253127 0.20993507 1
0.8743695 0.6269114 -0.094128199 12
0.9702009 0.69536424 0.23202376 7
0.88322043 0.63279021 -0.056941528 14
1.0787899 0.77290744 0.30638334 4
0.91692311 0.65669519 -0.019686313 10
1.2566321 0.89966017 0.41411048 5
0.95115846 0.67920661 -0.31317106 24
0.96189833 0.68662232 0.020628745 7
0.97557575 0.69612849 -0.2766898 42
0.98685884 0.70417964 0.063535862 2
1.0564867 0.75358486 -0.25224951 14
1.0057869 0.71715623 0.10807312 1
0.94423938 0.67302245 -0.18365408 9
1.0120529 0.72109127 0.15258044 1
0.86978334 0.61972374 -0.13113143 5
1.0571032 0.75291169 0.2055549 1
0.85534418 0.60898578 -0.09186215 11
0.97570032 0.6944201 0.23278698 7
0.89833349 0.63912022 -0.057778902 14
1.1702685 0.83258867 0.33157787 4
0.91257745 0.64901483 -0.019546695 11
1.2517357 0.88989156 0.4115223 6
0.95970929 0.68051821 -0.31524161 28
0.96416986 0.68342894 0.020628745 16
0.97628868 0.69176316 -0.2762399 29
0.9745217 0.69051117 0.06259381 2
0.9964987 0.70582134 -0.23736641 18
0.99189872 0.70230395 0.10633 1
1.1044791 0.78172594 -0.21431525 13
1.0144386 0.71773094 0.15258044 1
0.87831587 0.62142193 -0.13210639 5
1.0176618 0.7197457 0.19742033 1
0.85410517 0.60384589 -0.091513529 10
0.9731881 0.68778121 0.23164214 9
0.88902879 0.62807137 -0.057046197 12
1.2557867 0.88717449 0.35497275 4
0.91635811 0.64713889 -0.019581601 11
1.2625711 0.8913061 0.41411048 11
0.97167665 0.68366623 -0.31834742 25
0.95194757 0.66953659 0.0203146 15
0.96606433 0.6792134 -0.27264068 25
0.98697037 0.69365448 0.063221842 2
0.98956275 0.6952185 -0.23507671 24
1.0075086 0.70782638 0.1077245 1
1.15745 0.81286621 -0.22401418 19
1.0495563 0.73681992 0.15745521 1
0.88232023 0.61918545 -0.13235012 5
1.0624639 0.74532801 0.2055549 1
0.86294276 0.60513747 -0.092210777 6
0.982252 0.68854719 0.23316859 9
0.88816273 0.62236065 -0.056836855 12
1.3134454 0.92036825 0.37026942 4
0.91228485 0.63902634 -0.019441981 11
1.2833914 0.89864063 0.41980451 11
0.98051178 0.68452382 -0.32041797 13
0.92159796 0.64315516 0.019616505 11
0.97174406 0.67789775 -0.2735405 31
0.96984679 0.67632329 0.061965775 2
0.99049336 0.69046432 -0.23469506 26
1.010096 0.7041291 0.1077245 1
1.1733873 0.817653 -0.22651713 28
1.0457342 0.72842997 0.15648025 1
0.93019748 0.64770919 -0.1391748 6
1.0295204 0.71660155 0.1986718 1
0.87006098 0.60538447 -0.092733704 5
1.0041101 0.69839448 0.23774803 9
0.88715822 0.61682057 -0.056627508 10
1.3344104 0.92778468 0.37521836 4
0.91626275 0.63681972 -0.019476885 11
1.278744 0.88841915 0.41721633 9
0.99730659 0.69082606 -0.32507673 12
0.93545741 0.64774144 0.019860838 13
0.99184769 0.68653184 -0.27848941 48
0.98053151 0.67844599 0.062489137 3
0.99289769 0.68700242 -0.23469506 25
1.0257791 0.70948893 0.10911899 1
1.1065085 0.76504064 -0.21306378 27
1.041865 0.72007734 0.15550528 1
0.9962607 0.68830132 -0.14868061 5
1.0581464 0.73078448 0.2036777 1
0.88200563 0.60913688 -0.093779579 5
1.0130042 0.69934702 0.2392745 10
0.8925935 0.61598915 -0.056836855 10
1.3378017 0.92288786 0.37521836 2
0.90542108 0.62437516 -0.019197647 11
1.2994876 0.89578742 0.42291033 6
0.99334455 0.68296242 -0.32300618 16
0.92452872 0.63541132 0.019581601 13
0.98620695 0.67754823 -0.2762399 31
0.97630817 0.6704967 0.062070452 5
0.98719788 0.67797542 -0.23278698 22
0.99211305 0.68109554 0.10528414 1
1.03425 0.70975816 -0.1986718 28
1.0443721 0.71643639 0.15550528 1
1.083789 0.74319744 -0.16135503 4
1.0541737 0.72261858 0.20242621 1
0.89070016 0.61056018 -0.094476826 5
1.0170586 0.69691658 0.23965611 9
0.88485175 0.60609728 -0.056208819 8
1.3635265 0.93362564 0.38151699 2
0.89109313 0.60991621 -0.0188486 11
1.312173 0.89779079 0.42601615 6
1.0148712 0.69255769 -0.32921785 36
0.91848117 0.62654597 0.019407077 15
0.99500644 0.6784929 -0.27803952 17
0.97192591 0.6627543 0.061651766 9
0.9928031 0.67673665 -0.23355024 20
1.00107 0.68211657 0.10598138 2
1.0301909 0.7016952 -0.19742033 36
1.0698388 0.72842729 0.15891764 1
1.056712 0.71948957 -0.15696773 4
1.0402335 0.70800483 0.19929753 1
0.8928259 0.6074475 -0.094476826 5
1.0259788 0.69777822 0.24118258 7
0.90347868 0.61423469 -0.057255544 7
1.360168 0.92471731 0.37971738 2
0.90468836 0.61482567 -0.019092934 11
1.3582884 0.92274547 0.4399924 6
1.0171622 0.68918866 -0.32921785 64
0.92386532 0.62573922 0.019476885 15
1.0020918 0.67846739 -0.27938923 23
0.9790796 0.66288704 0.061965775 10
0.9966678 0.67454082 -0.23393184 23
1.0066271 0.68102568 0.10633 2
1.0259668 0.69384885 -0.19616884 36
1.0623813 0.71820462 0.15745521 1
1.0558032 0.71375757 -0.15648025 10
1.0491226 0.70897537 0.20054901 1
0.9278549 0.62678927 -0.097963057 4
1.0136439 0.68448359 0.23774803 6
0.89888906 0.60676533 -0.056836855 7
1.3713032 0.9256528 0.38196689 2
0.89843398 0.6062299 -0.01891841 10
1.3853649 0.93443996 0.44775698 5
1.0226479 0.68796819 -0.33025309 100
0.92593515 0.62267232 0.019476885 15
1.0188919 0.68492502 -0.28343832 30
0.96481031 0.6483255 0.060919058 10
1.0005286 0.67232722 -0.23431346 17
1.0138415 0.68101698 0.10685294 3
1.0200624 0.68493664 -0.1946045 21
1.064757 0.71467793 0.15745521 1
1.0615846 0.71228063 -0.15696773 22
1.0647156 0.71411127 0.20305197 1
1.0210551 0.68456954 -0.10755019 2
1.0387375 0.69642472 0.24309067 6
0.91085076 0.61045295 -0.057464886 7
1.3664312 0.91543692 0.37971738 2
0.91549844 0.61310422 -0.019232551 8
1.4014602 0.9381969 0.45189807 5
1.029983 0.687433 -0.33180603 96
0.92976648 0.62054634 0.019511791 13
1.0293815 0.68677258 -0.28568783 48
0.96706736 0.64495391 0.060919058 11
1.0078865 0.6719228 -0.23545831 10
1.0130153 0.67508596 0.10650431 4
1.0242097 0.68228865 -0.19491737 22
1.0573326 0.70435381 0.15599278 1
1.0624123 0.70747 -0.15672398 27
1.080357 0.71914667 0.2055549 1
1.0732003 0.71411335 -0.11277953 2
1.0412829 0.69261318 0.24309067 6
0.92306149 0.6137448 -0.058092915 7
1.3649082 0.90718663 0.37836766 2
0.91263676 0.60658431 -0.019127838 5
1.407945 0.93543702 0.45293337 2
1.0259339 0.67956632 -0.32973549 90
0.93203449 0.61713457 0.019511791 11
1.0465175 0.69267458 -0.28973696 60
0.96764749 0.6404717 0.060814388 11
1.0216868 0.67598391 -0.23812963 8
0.98545265 0.65176284 0.10336671 8
1.0430634 0.68960333 -0.19804606 29
1.0665313 0.70485198 0.15696773 1
1.0567166 0.69810057 -0.15550528 19
1.0696748 0.70666122 0.20305197 1
1.0756867 0.71036255 -0.11277953 9
1.0535251 0.69546342 0.24538037 4
0.93186593 0.61491978 -0.058511604 7
1.3615599 0.89812428 0.37656805 2
0.93144113 0.61440551 -0.019476885 5
1.4144275 0.93264312 0.45396861 2
1.0282998 0.67598075 -0.32973549 87
0.93073416 0.61184329 0.019441981 11
1.0536942 0.69241107 -0.29108664 58
0.96486884 0.6338011 0.060500368 11
1.0437336 0.68534416 -0.24270906 8
0.98605621 0.64722538 0.1031924 9
1.0370872 0.68072098 -0.1964817 31
1.0522653 0.69042158 0.15453033 1
1.0590259 0.69459224 -0.15550528 13
1.0721351 0.70292282 0.20305197 1
1.0864917 0.71206427 -0.11365108 19
1.0426892 0.683357 0.24232745 6
0.96898407 0.63481051 -0.060709719 3
1.3694214 0.89680737 0.37791777 2
0.95031095 0.62210315 -0.019825934 5
1.4144413 0.92558485 0.45293337 2
1.0192112 0.66517651 -0.32611203 87
0.92951471 0.6064052 0.019372171 10
1.0610017 0.69192255 -0.29243636 46
0.97365725 0.63496172 0.060919058 11
1.0640914 0.6936729 -0.24690685 9
0.98819727 0.64395171 0.1031924 9
1.0328362 0.67278427 -0.19523023 15
1.0247259 0.66724664 0.15014306 5
1.0531256 0.68547654 -0.15428659 13
1.0943271 0.71229446 0.20680638 1
1.0921869 0.71063083 -0.11399971 25
1.0417765 0.67757255 0.2415642 6
1.0298007 0.66952705 -0.064373232 1
1.3856152 0.90051752 0.38151699 2
0.95907539 0.62330741 -0.019965554 6
1.4207428 0.92299443 0.45396861 2
1.0215271 0.66161442 -0.32611203 85
0.93823409 0.60766792 0.019511791 7
1.0681977 0.69157779 -0.29378608 40
0.95742375 0.61962223 0.059767671 10
1.1769487 0.76140219 -0.27247527 11
0.99043864 0.64049894 0.1031924 10
1.0234503 0.661847 -0.19304016 8
1.0102621 0.65306783 0.14770564 6
1.0470563 0.67659378 -0.1530679 20
1.0984662 0.70954233 0.20711927 2
1.0913134 0.70465225 -0.11365108 23
1.0506151 0.67837369 0.24309067 6
1.0655767 0.68777078 -0.066466674 3
1.388594 0.89591736 0.38151699 1
1.0150213 0.65463835 -0.021082507 7
1.4272035 0.92012268 0.45500392 2
1.0237153 0.65822351 -0.32611203 83
0.94707823 0.60871416 0.019651409 7
1.1001166 0.70680505 -0.30188429 30
0.95790017 0.61519736 0.059662998 8
1.2884933 0.8275159 -0.29766205 22
0.98417419 0.63182896 0.10232083 10
1.0490292 0.67320669 -0.19742033 8
1.0259025 0.65811175 0.14965557 11
1.0510826 0.67400652 -0.15331164 14
1.0876316 0.69717574 0.20461631 2
1.0701607 0.68597686 -0.11121072 14
1.061242 0.67999792 0.24499875 7
1.0898347 0.69805133 -0.067827404 12
1.3654538 0.87425244 0.37431854 1
1.0627759 0.68019605 -0.022024937 9
1.4369156 0.9192999 0.45707443 2
1.016235 0.64841151 -0.32300618 78
0.97280085 0.62045872 0.020140078 7
1.1518725 0.73438984 -0.31538138 46
0.96509469 0.61506987 0.05997701 8
1.3079301 0.83356428 -0.30147824 20
0.98133278 0.62517786 0.10179791 10
1.0613698 0.67590737 -0.19929753 7
1.0248443 0.65239495 0.14916809 11
1.0785508 0.68631893 -0.15696773 9
1.0683906 0.67959243 0.20054901 2
1.0809542 0.68758404 -0.11208228 14
1.0718925 0.68155652 0.24690685 12
1.0939506 0.69531399 -0.067932077 16
1.4079735 0.89456165 0.38511622 1
1.0735837 0.6818428 -0.022199461 10
1.4107593 0.89564061 0.44775698 2
1.0184923 0.64485997 -0.32300618 76
0.97158122 0.61492062 0.020070268 7
1.2219493 0.77308166 -0.33382738 24
0.97398776 0.61596769 0.060395699 6
1.3176143 0.83296144 -0.30300471 15
0.97508848 0.61642557 0.10092635 8
1.0670626 0.67430866 -0.19992328 7
1.0204021 0.64457327 0.14819314 11
1.0775827 0.68043035 -0.15648025 5
1.0590633 0.66847789 0.19835892 4
1.0851523 0.68468046 -0.1122566 20
1.052796 0.66400826 0.2419458 16
1.088044 0.68597418 -0.067408718 13
1.4110873 0.88964176 0.38511622 1
1.0776488 0.6791575 -0.022234365 9
1.4187804 0.89380014 0.44930989 1
1.0208492 0.6411224 -0.32300618 76
0.99923295 0.6273036 0.020593841 9
1.2561367 0.78827918 -0.34237552 19
0.99992591 0.62725216 0.061861105 5
1.317332 0.82604033 -0.30224147 13
0.98409331 0.61708111 0.10162359 8
1.0678531 0.66934425 -0.1996104 1
1.0126648 0.63450474 0.14673071 11
1.0867989 0.68069077 -0.15745521 5
1.0514603 0.65830249 0.1964817 9
1.0741433 0.67224234 -0.11086211 16
1.0518939 0.65806234 0.24118258 25
1.0702299 0.66927403 -0.066152655 8
1.4143384 0.8844642 0.38511622 1
1.0750439 0.67202294 -0.022129651 8
1.3974725 0.87323779 0.44154531 1
1.0264716 0.63941967 -0.32404146 81
1.0762151 0.67014569 0.022129651 8
1.2755618 0.79396755 -0.34687454 27
1.0021092 0.62375826 0.061861105 5
1.3268751 0.8255859 -0.30376795 13
0.99311572 0.61767936 0.10232083 8
2.2462864 1.3965594 -0.41893157 33
1.0183555 0.63288468 0.14721818 11
1.1026565 0.68527579 -0.15940511 5
1.0571079 0.65671277 0.19710746 9
1.0866387 0.67479551 -0.11190797 9
1.0775367 0.66888267 0.24652523 27
1.0810452 0.67079926 -0.066676013 8
1.4174174 0.87952155 0.38511622 1
1.0841808 0.67248219 -0.022269269 5
1.4136469 0.8764987 0.44568643 1
1.0252999 0.63398039 -0.32300618 72
1.1039467 0.6823436 0.022653224 12
1.3196334 0.81534094 -0.35812208 21
1.0109684 0.62463105 0.062279794 5
1.3212534 0.81602329 -0.30185983 14
0.99346346 0.61333585 0.10214653 6
2.259311 1.3942893 -0.4204959 48
1.0170696 0.62742001 0.14673071 11
1.0914068 0.67327785 -0.15745521 4
1.0391033 0.64076138 0.19335303 10
1.1058313 0.68164271 -0.11365108 5
1.0847632 0.66839564 0.2476701 16
1.095168 0.67454243 -0.067408718 7
1.3605931 0.83802456 0.36891973 1
1.0915132 0.6720286 -0.022373985 5
1.4000933 0.86168075 0.44051 1
1.0241039 0.62855554 -0.32197091 72
1.1027943 0.6765877 0.022583414 14
1.3572153 0.83235526 -0.36757001 25
1.0506036 0.644063 0.064582579 5
1.3323214 0.81676751 -0.30376795 14
1.0056845 0.61628431 0.1031924 5
2.2588677 1.3836954 -0.4195573 55
1.0174518 0.62300688 0.14648695 10
1.0988299 0.67257273 -0.15818642 1
1.0345932 0.63300723 0.19210154 9
1.0946063 0.6694625 -0.1122566 5
1.0919982 0.66786742 0.24881494 16
1.1042148 0.67507428 -0.067827404 7
1.2570899 0.76823407 0.34012601 1
1.0955588 0.6692571 -0.02240889 6
1.3866053 0.84671992 0.43533364 1
1.0247506 0.62379354 -0.32145327 67
1.0931925 0.66545594 0.022339081 8
1.3784251 0.83875519 -0.37251896 22
1.1074504 0.67360479 0.067932077 8
1.3436934 0.81697887 -0.30567604 14
1.0181519 0.61880308 0.10423827 5
2.2419779 1.3620718 -0.41549 59
1.0196204 0.61945128 0.14648695 10
2.3143249 1.4054732 -0.3324596 55
1.043551 0.63349199 0.19335303 9
1.1020465 0.66873801 -0.11277953 5
1.0843672 0.65775168 0.24652523 15
1.1271756 0.68344927 -0.069083467 7
1.1149894 0.67579347 -0.022757938 5
1.3135481 0.79582709 0.4115223 1
1.0269219 0.62021238 -0.32145327 66
1.1058956 0.66764545 0.02254851 8
1.3864952 0.83671832 -0.37386864 25
1.1457045 0.69140661 0.070130184 10
1.3498993 0.81431127 -0.30643925 15
1.0220121 0.61627388 0.10441258 4
2.24841 1.3552588 -0.41580287 61
1.0133822 0.61058778 0.14526826 6
2.3381665 1.4082469 -0.33514073 83
1.0457561 0.62984514 0.19335303 9
1.1060804 0.66591543 -0.11295383 4
1.0731996 0.64586359 0.24347228 12
1.1055944 0.66509634 -0.067618065 7
1.1656917 0.70097297 0.31403166 1
1.1190549 0.67292863 -0.022792844 5
1.2202851 0.73351127 0.38149929 1
1.0307379 0.61761671 -0.32197091 59
1.1201112 0.6711691 0.022792844 7
1.4059803 0.84212899 -0.37836766 26
1.1378297 0.68124706 0.06950216 11
1.3712645 0.82068431 -0.31063706 13
1.0532231 0.63009173 0.10737588 5
2.252892 1.3477948 -0.41580287 63
1.0239198 0.61231834 0.14648695 6
2.3223774 1.3882624 -0.33221585 73
1.0394697 0.62112492 0.19178867 9
1.1272138 0.67328864 -0.11487127 1
1.0719644 0.64028794 0.24270906 12
1.1197981 0.66859323 -0.06835077 6
1.1077688 0.66114956 0.2978352 2
1.1299838 0.67414069 -0.022967368 7
1.1796988 0.70352042 0.36804068 1
1.0344403 0.61518341 -0.32248855 56
1.1258844 0.66929942 0.022862652 7
1.4206387 0.84418422 -0.38151699 33
1.1314976 0.67236835 0.068978801 8
1.368914 0.81312555 -0.3094922 7
1.0895699 0.64693987 0.11086211 5
2.2524872 1.3368973 -0.41486427 59
1.0397092 0.61684328 0.14843687 6
2.3101339 1.3700231 -0.32977846 67
1.0347273 0.61364418 0.1905372 7
1.0809491 0.64054531 0.24423553 12
1.1461823 0.67893153 -0.069816172 6
1.100009 0.65132117 0.29513577 6
1.1373752 0.67344588 -0.023072081 5
1.1421256 0.67598939 0.35561737 3
1.0166153 0.59978867 -0.31627688 52
1.1487653 0.67775542 0.023281511 6
1.4402158 0.84936821 -0.38601601 38
1.1355581 0.66942906 0.069083467 5
1.3971156 0.82329273 -0.31521648 1
1.1450394 0.67448002 0.11626577 6
2.2586098 1.3304234 -0.41517711 61
1.053723 0.62044281 0.15014306 5
2.3146648 1.3623543 -0.32977846 67
1.0385658 0.61102992 0.19085006 6
2.3700206 1.3938217 -0.24054985 55
1.0830671 0.63695747 0.24423553 12
1.1380969 0.66905349 -0.06918814 6
1.1038429 0.64865732 0.29558566 10
1.16041 0.68162513 -0.023490939 5
1.1228212 0.65928262 0.34888807 6
1.0221415 0.59800988 -0.31731215 49
1.1479068 0.67132074 0.023211701 7
1.4451491 0.84481508 -0.38646591 34
1.1517982 0.67332608 0.069920845 4
2.198499 1.2847002 -0.49495855 56
1.1612668 0.67831826 0.11766025 8
2.2449374 1.3107843 -0.41173556 59
1.0818139 0.63140202 0.15379913 6
2.3164492 1.3514564 -0.32929099 67
1.054448 0.61518312 0.19335303 5
2.3699505 1.3821141 -0.24002692 57
1.0770241 0.62785065 0.24232745 10
1.1579142 0.674734 -0.070234857 1
1.1130611 0.64833724 0.29738528 11
1.1698122 0.68139368 -0.023630559 5
1.128569 0.65710717 0.34992337 8
1.0292354 0.5973472 -0.31886509 47
1.1501268 0.66751015 0.023211701 7
1.4327719 0.83121729 -0.38241678 26
1.1835134 0.68633479 0.071700267 4
2.204669 1.2780021 -0.4953402 49
1.1584561 0.67126352 0.11713732 7
2.2475624 1.3023425 -0.4114227 65
1.118257 0.64770967 0.1586739 6
2.3209186 1.3437667 -0.32929099 67
1.073686 0.62139314 0.1964817 4
2.3713112 1.3718381 -0.23967829 57
1.0672048 0.61739355 0.23965611 10
2.4274871 1.4037714 -0.14695938 65
1.1168921 0.64561814 0.2978352 12
1.186035 0.68531001 -0.023909798 4
1.142566 0.65992695 0.35354683 13
1.0245144 0.59007436 -0.31679454 40
1.1645812 0.67047518 0.023456035 8
1.4322865 0.82426721 -0.38151699 20
1.1668581 0.67124462 0.070548877 4
2.2037892 1.2677478 -0.49419534 61
1.1744933 0.67536336 0.1185318 5
2.2589447 1.2984272 -0.41267416 65
1.173869 0.67445922 0.1662298 5
2.3101027 1.3267585 -0.32709733 65
1.0998323 0.63141084 0.20086187 4
2.3812697 1.3665266 -0.24020122 55
1.0761648 0.61757296 0.24118258 9
2.421978 1.3893259 -0.14633135 60
1.1056144 0.63396084 0.29423597 12
1.1658661 0.66823822 -0.023456035 2
1.1431866 0.65497398 0.35302919 19
1.0300255 0.58823115 -0.31782979 30
1.1860155 0.67731458 0.023839988 6
1.4283856 0.8153978 -0.37971738 15
1.179602 0.67310685 0.071176901 4
2.1964839 1.2528524 -0.49152401 62
1.1890765 0.6779623 0.11975199 4
2.2602565 1.2881823 -0.41204843 65
1.186564 0.6762554 0.16769223 9
2.3043709 1.3127915 -0.32563493 63
1.0917305 0.62170243 0.19898467 4
2.3790989 1.3542641 -0.23950398 58
1.08354 0.61653751 0.24232745 7
2.4339979 1.3843899 -0.14675003 61
1.0926839 0.62123561 0.29018685 10
2.4650233 1.4014667 -0.049495026 33
1.1454659 0.65097976 0.35302919 19
1.0152633 0.57511061 -0.31265342 30
1.1884899 0.67296338 0.023839988 6
1.4466277 0.81879646 -0.3837665 15
1.1993263 0.67882288 0.072223626 5
2.1923006 1.2403433 -0.48961592 60
1.1775615 0.66596133 0.11835749 4
2.2681782 1.2822293 -0.41267416 63
1.2063173 0.68166757 0.17012961 5
2.310895 1.3053136 -0.32587865 67
1.1317329 0.63926154 0.20586778 5
2.3716669 1.3390946 -0.2382838 60
1.0942343 0.617576 0.24423553 6
2.4353368 1.3739218 -0.1465407 61
1.0948457 0.61741793 0.29018685 10
2.496027 1.4075881 -0.050018597 50
1.1409998 0.64318252 0.35095865 17
1.0189488 0.57250971 -0.31317106 29
1.1976883 0.67293686 0.023979606 6
1.4578308 0.8187657 -0.38601601 15
1.2225876 0.68636471 0.07347969 5
2.1931915 1.2307631 -0.48885265 60
1.1903052 0.66769499 0.11940337 4
2.251744 1.2631031 -0.40891972 63
1.2033767 0.67475122 0.16939841 5
2.3221376 1.301526 -0.3268536 71
1.1908278 0.66716868 0.21619245 5
2.3658969 1.3249661 -0.23723793 60
1.103128 0.6177814 0.24576201 6
2.436393 1.3638889 -0.14633135 61
1.1121926 0.62234801 0.29423597 10
2.5009255 1.3988662 -0.050018597 59
1.1364926 0.63542545 0.34888807 17
1.0208418 0.56912732 -0.31317106 28
1.1947898 0.66583133 0.023874892 3
1.4691923 0.8184132 -0.38826552 16
1.2284659 0.68403649 0.073689036 4
2.2006919 1.2253932 -0.48961592 58
1.2168852 0.67730993 0.12184373 4
2.2561398 1.2552347 -0.40891972 61
1.2074593 0.67151159 0.16964214 4
2.3197267 1.2895534 -0.32587865 67
1.2276835 0.68219733 0.22244984 7
2.3755028 1.3200158 -0.23776087 63
1.1224403 0.62346029 0.24957818 6
2.4306624 1.3495581 -0.14570332 62
1.1160624 0.6194073 0.29468587 8
2.4900551 1.3813976 -0.049704451 53
1.1403935 0.6323911 0.34940571 17
1.0262036 0.56742984 -0.31420633 29
2.5569785 1.413275 0.050995931 47
1.4839797 0.81987751 -0.39141485 16
1.2343429 0.6816749 0.073898375 4
2.2032375 1.216754 -0.4892343 62
1.2401733 0.68461239 0.12393546 4
2.2535887 1.2435359 -0.40766826 61
1.216749 0.67112732 0.1706171 4
2.3120453 1.2747384 -0.32417247 63
1.2387072 0.68267596 0.22401418 6
2.38184 1.3126789 -0.23793517 60
1.1349274 0.62522191 0.25186789 6
2.433609 1.3401011 -0.14559864 63
1.1045597 0.60799086 0.29108664 5
2.4931104 1.3717326 -0.049669549 52
1.1409013 0.6274752 0.34888807 14
1.0264838 0.56291598 -0.3136887 27
2.5583887 1.4024189 0.050926123 44
1.5295577 0.83810276 -0.4026624 47
1.2314593 0.67448461 0.073584363 4
2.1954174 1.2024558 -0.48656297 58
1.2530411 0.6860202 0.12498133 4
2.2648473 1.2394544 -0.40891972 65
1.2382414 0.67735523 0.17329822 4
2.3147392 1.2657084 -0.32392874 67
1.2254826 0.66982085 0.22119835 5
2.3829114 1.3024449 -0.23758654 60
1.197404 0.65420163 0.26522452 6
2.4347661 1.329684 -0.1453893 63
1.1049649 0.60319746 0.29063675 5
2.4873517 1.3572738 -0.04946012 54
1.1396928 0.62163907 0.34785283 14
1.0131687 0.55102235 -0.30902994 29
2.5544846 1.3887038 0.0507516 48
2.1420391 1.1640015 -0.56282753 47
1.2478467 0.67780811 0.074421734 1
2.1927006 1.1910359 -0.48503649 60
1.2484248 0.6778391 0.12428409 4
2.2656877 1.2296572 -0.40829399 61
1.2493222 0.67776263 0.17451692 4
2.3139086 1.2547812 -0.32319754 65
1.2469163 0.6758942 0.22463992 4
2.378685 1.2893723 -0.23671499 63
1.2583692 0.68181819 0.27819952 6
2.4429054 1.3230788 -0.14559864 63
1.1344835 0.61418074 0.2978352 5
2.4867973 1.3457297 -0.049355406 53
1.1333599 0.61306101 0.34526464 13
1.0201871 0.55023324 -0.31058288 27
2.5487545 1.3740865 0.050542168 47
2.1666753 1.1676103 -0.56822634 57
2.1968453 1.1833742 -0.48503649 58
1.2683251 0.68292367 0.12602721 4
2.2595298 1.2161231 -0.40641677 61
1.2831473 0.69032621 0.17890421 4
2.318274 1.2466971 -0.32319754 65
1.2562279 0.67527837 0.2258914 4
2.3568478 1.2669106 -0.23410031 61
1.2693888 0.68206739 0.28010762 8
2.4439898 1.3126539 -0.1453893 63
1.1572236 0.62127846 0.30323401 4
2.4879558 1.3351492 -0.049285594 51
1.1337905 0.60818815 0.34474698 8
1.027212 0.54940236 -0.31213579 22
2.5464816 1.3614094 0.050402552 48
2.1587071 1.1536102 -0.56507707 63
2.6336989 1.4068559 0.15648453 54
2.2044256 1.177549 -0.4857997 58
1.2812467 0.6841225 0.12707306 4
2.2602761 1.2063676 -0.40579104 65
1.2750405 0.68023688 0.17744178 4
2.3208599 1.2376634 -0.32295379 67
1.2760094 0.68018097 0.22902009 4
2.3700469 1.2633612 -0.23497188 63
1.2700291 0.67670929 0.279726 6
2.4362168 1.2975432 -0.1446566 70
1.2092699 0.64379245 0.31628117 4
2.4943664 1.3273964 -0.049320504 52
1.1478454 0.61057776 0.34837046 8
1.0359503 0.54943377 -0.31420633 15
2.5441515 1.3487649 0.050262932 48
2.1609988 1.1451559 -0.56462717 66
2.6242321 1.3906324 0.15564716 53
2.2067881 1.1689274 -0.48541811 62
1.2977135 0.68710399 0.12846756 2
2.2609813 1.1966228 -0.40516531 63
1.2809168 0.67763823 0.17792925 4
2.3163922 1.2249142 -0.32173508 65
1.2939742 0.68425691 0.23183592 4
2.376204 1.2560123 -0.23514619 61
1.2758554 0.67410594 0.28048924 6
2.4354334 1.2862322 -0.14434259 65
1.2614866 0.66595095 0.32932836 5
2.4934497 1.3163161 -0.049215786 51
1.1601154 0.61217719 0.35147628 8
1.0429912 0.54851204 -0.31575924 12
2.5521498 1.3421829 0.05033274 49
2.161334 1.1361703 -0.56372732 66
2.6184614 1.37589 0.15501912 58
2.1986883 1.1548274 -0.48274681 57
2.2719326 1.1927919 -0.40641677 65
1.3007342 0.68261153 0.18036664 4
2.3098941 1.2116926 -0.32027265 63
1.298104 0.68065351 0.23214878 4
2.3735144 1.2440108 -0.23444894 65
1.3006893 0.68171972 0.28545028 5
2.4396856 1.2781483 -0.14434259 65
1.2947623 0.67803723 0.3374266 5
2.4909422 1.3038952 -0.049076166 51
1.1656688 0.60991484 0.35251155 8
1.0482299 0.54683763 -0.31679454 12
2.5603659 1.3351146 0.050402552 47
2.1721997 1.1322213 -0.56552696 66
2.6250193 1.3676647 0.1551238 55
2.199023 1.145716 -0.48198354 58
2.6966107 1.4043648 0.26599932 45
2.2655697 1.1793808 -0.40453959 63
1.3066308 0.67989987 0.18085413 4
2.3141093 1.2036226 -0.32027265 65
1.3004723 0.67611778 0.23214878 4
2.3672349 1.2302063 -0.23340309 61
1.3169973 0.68441808 0.28850323 5
2.4405873 1.2677836 -0.14413324 65
1.3005803 0.67530918 0.33832639 9
2.4883792 1.291507 -0.04893655 50
1.1695054 0.60673207 0.35302919 8
1.0553755 0.54565346 -0.31834742 11
2.5472472 1.3169856 0.0500535 49
2.1692133 1.1210537 -0.56372732 66
2.6280031 1.357576 0.15501912 53
2.1997192 1.1358465 -0.4812203 60
2.6911168 1.3889896 0.26495346 47
2.2628546 1.1674469 -0.4032881 65
1.3372227 0.68989682 0.18475394 1
2.3288825 1.2009971 -0.32173508 65
1.3203826 0.68062532 0.23527746 4
2.3608882 1.2164594 -0.2323572 61
1.3194972 0.67958611 0.28850323 5
2.4505446 1.2615731 -0.14444725 70
1.3117104 0.67499644 0.3405759 9
2.4928722 1.2828135 -0.04893655 50
1.175052 0.60441297 0.35406446 6
1.0779034 0.55254138 -0.32455909 11
2.5520575 1.30764 0.0500535 49
2.1681046 1.11043 -0.56237763 69
2.6347387 1.3488456 0.1551238 55
2.2036703 1.1281615 -0.4812203 57
2.6959491 1.3795866 0.26495346 47
2.2581232 1.1550425 -0.40172374 58
2.3261986 1.1888392 -0.32076016 65
1.3334231 0.68117279 0.23715468 4
2.368669 1.210023 -0.23270583 59
1.3253582 0.67676193 0.28926644 5
2.4389231 1.2448388 -0.1435052 65
1.3175305 0.67218453 0.34147573 6
2.4957755 1.2727602 -0.048901644 49
1.1944706 0.60887581 0.35924083 6
1.0849923 0.5514009 -0.32611203 12
2.5566061 1.2987242 0.0500535 51
2.1598041 1.0966796 -0.5592283 66
2.6198406 1.3296963 0.1539724 53
2.2110965 1.1222388 -0.48198354 60
2.7060785 1.3728724 0.26547641 48
2.2639027 1.148047 -0.40203664 63
2.7745514 1.4063933 0.38193855 44
2.3161683 1.1735338 -0.31881022 65
1.3551775 0.68633193 0.24059623 4
2.3728781 1.201748 -0.23270583 61
1.3487318 0.68277174 0.29384586 5
2.4325614 1.2309066 -0.14287716 63
1.3320414 0.67373848 0.34462503 5
2.5019879 1.2649422 -0.04893655 50
1.187968 0.60034567 0.35665265 6
1.0851851 0.54674119 -0.32559437 11
2.5575516 1.2879938 0.049983691 51
2.1758039 1.0952667 -0.56237763 69
2.6244659 1.3205439 0.1539724 58
2.2009702 1.1074549 -0.47893062 58
2.707294 1.3616282 0.26512775 48
2.2749562 1.1436859 -0.4032881 61
2.7670283 1.3904598 0.38023239 45
2.3096063 1.1600971 -0.31734779 65
2.8404713 1.4261241 0.50340617 24
2.3788397 1.1943512 -0.23288015 63
1.3721633 0.68862641 0.29842529 5
2.4475539 1.2277828 -0.1435052 65
1.3465794 0.67519873 0.34777433 5
2.4974499 1.2517201 -0.048762023 52
1.2194188 0.6109063 0.3654525 6
1.0819023 0.54035997 -0.32404146 4
2.558454 1.2772713 0.049913883 51
2.1743822 1.0850562 -0.56102794 66
2.6272724 1.3104825 0.15386772 60
2.2013092 1.0980122 -0.47816736 58
2.7048988 1.348613 0.26443052 52
2.2700939 1.1313341 -0.40172374 59
2.7771955 1.3834487 0.38096359 44
2.32075 1.1555668 -0.31832278 65
2.8348203 1.4109212 0.50152892 30
2.3687239 1.1789398 -0.23148565 63
1.3745586 0.68383276 0.29842529 5
2.4500368 1.2183419 -0.14340053 70
1.3541634 0.673096 0.34912404 5
2.4964311 1.240326 -0.048657309 53
1.2111626 0.60149008 0.36234668 6
1.0733943 0.53143692 -0.32093561 1
2.5449743 1.259464 0.049564835 51
2.1729167 1.0748669 -0.55967826 69
2.6387644 1.3053057 0.15428641 60
2.2016089 1.0885806 -0.47740412 58
2.6988723 1.3338667 0.26338464 52
2.2651742 1.1190277 -0.40015942 61
2.7802279 1.3728663 0.38071984 45
2.3283296 1.1492165 -0.31881022 63
2.8501122 1.406758 0.50340617 43
2.3638911 1.1662561 -0.2306141 61
2.9352362 1.4474977 0.63615721 4
2.4381514 1.2018352 -0.14245848 68
1.3739849 0.67697883 0.35362303 5
2.4951489 1.2293898 -0.048552595 52
1.2166169 0.59917712 0.36338195 6
2.1210024 1.0409062 -0.63307142 62
2.5491369 1.251018 0.049564835 51
2.169471 1.0642217 -0.55787861 69
2.6433048 1.2960861 0.15428641 60
2.2089205 1.0826184 -0.47816736 57
2.7035124 1.324437 0.26338464 52
2.2653251 1.1097714 -0.39953369 61
2.7829821 1.3627667 0.38047612 45
2.3214295 1.1362534 -0.31734779 65
2.8585546 1.3985361 0.5040319 45
2.3643682 1.1562462 -0.23026547 61
2.9223831 1.4291319 0.63234103 15
2.4331515 1.1893585 -0.14193512 65
1.3902298 0.6792624 0.35722226 5
2.4976287 1.2197944 -0.048517693 51
1.2377969 0.60424972 0.36907598 8
2.1209686 1.0321757 -0.63203615 60
2.5570848 1.2438611 0.049634643 51
2.1626575 1.051529 -0.55517924 69
2.6278307 1.2777059 0.15313502 58
2.2124989 1.0752867 -0.47816736 56
2.7132657 1.3180771 0.26390758 50
2.2674084 1.1009936 -0.39922079 59
2.7662914 1.3426433 0.37755126 42
2.320024 1.1255431 -0.31661656 67
2.8560674 1.3856008 0.50278044 44
2.375361 1.151876 -0.23096271 61
2.9291205 1.4197792 0.63272268 34
2.444478 1.1843405 -0.1423538 70
1.3908387 0.67355567 0.35677236 4
2.5016601 1.2115046 -0.048517693 51
1.2623991 0.61108369 0.37580526 7
2.121079 1.0230868 -0.63100088 59
2.5611959 1.2353739 0.049634643 51
2.1696427 1.0460458 -0.55607903 69
2.6286755 1.2667929 0.15292569 58
2.2003205 1.0598886 -0.47473282 55
2.7070789 1.3034124 0.2628617 50
2.2692664 1.0926132 -0.39890796 61
2.7707283 1.333463 0.37755126 42
2.3165886 1.1144007 -0.31564164 67
2.8466446 1.3687739 0.50027746 45
2.3739789 1.1409897 -0.23043977 63
2.9426596 1.4143109 0.63463074 44
2.4429915 1.1736326 -0.14203981 75
1.3790109 0.66219163 0.35317314 4
2.4914513 1.1958429 -0.048238453 53
1.2662663 0.60750866 0.37632293 7
2.1141794 1.0106778 -0.62789506 60
2.5584893 1.2225305 0.049495026 51
2.1769791 1.0397657 -0.55697882 73
2.6314986 1.2562886 0.152821 60
2.1986911 1.0496646 -0.47358796 57
2.7026217 1.2896641 0.26199016 53
2.2732561 1.084288 -0.39890796 61
2.7755973 1.3232981 0.37755126 42
2.3278251 1.1093189 -0.31661656 67
2.8480754 1.3566329 0.49965176 45
2.3691509 1.127998 -0.22956821 61
2.947824 1.4035153 0.63463074 43
2.4418662 1.1620964 -0.14172579 67
1.3919872 0.66215581 0.35587254 4
2.4976237 1.1875612 -0.048273355 54
1.2667396 0.60203451 0.37580526 6
2.114378 1.001268 -0.62685978 62
2.5573194 1.2110239 0.049390312 52
2.1805954 1.0321608 -0.55697882 69
2.6394782 1.2488042 0.15303035 60
2.2096229 1.0449555 -0.47511441 56
2.7019265 1.277196 0.26146722 50
2.2664983 1.070886 -0.39703071 63
2.7766099 1.3119059 0.37706378 43
2.3280935 1.0994905 -0.31612909 67
2.8527932 1.3466836 0.49965176 45
2.3694704 1.1180203 -0.2292196 59
2.9387431 1.386001 0.63157779 43
2.4443021 1.1522876 -0.14162111 68
1.4120334 0.66535574 0.36037159 5
2.4981358 1.1771314 -0.048203547 54
1.2740767 0.60007823 0.37735817 6
2.1178601 0.99388188 -0.62685978 60
2.5472574 1.1948496 0.049111072 52
2.172013 1.0183702 -0.55382949 76
2.6347799 1.2353431 0.15250699 58
2.2097015 1.0355705 -0.47435117 58
2.7045643 1.2669108 0.2612929 53
2.2702229 1.0629673 -0.39703071 63
2.7688146 1.2958295 0.3753576 45
2.3285115 1.0892684 -0.31564164 71
2.8574772 1.3367165 0.49965176 45
2.3715534 1.108899 -0.22904527 63
2.9364486 1.3724101 0.63005131 45
2.4320242 1.1361396 -0.14067906 67
1.428473 0.66701901 0.36397079 9
2.5040412 1.1692507 -0.048238453 53
1.3181769 0.61523658 0.3897815 6
2.1248193 0.98811263 -0.62789506 60
2.5548317 1.1880828 0.04918088 52
2.1700768 1.008697 -0.5524798 69
2.6300192 1.2219312 0.15198363 60
2.2133031 1.0278503 -0.47435117 56
2.7071631 1.2566228 0.26111859 49
2.2737355 1.0554326 -0.39703071 61
2.7694948 1.2849703 0.37487015 45
2.3249075 1.0781995 -0.31466666 71
2.8549571 1.32341 0.49840027 46
2.3736022 1.0997769 -0.22887097 61
2.9463272 1.3651415 0.6311962 43
2.4357786 1.1280679 -0.14067906 65
1.4182981 0.65654749 0.36082149 9
2.5026627 1.1579843 -0.048133738 55
3.1350946 1.449945 0.92553693 6
2.1280847 0.9810605 -0.62789506 59
2.5662277 1.1825057 0.049320504 52
2.1735845 1.0011164 -0.5524798 69
2.6324549 1.2119075 0.15187897 62
2.2059994 1.0155795 -0.47206149 57
2.7040749 1.2443089 0.26042137 51
2.2774057 1.0474898 -0.39703071 65
2.7829816 1.2794404 0.37608883 48
2.3214419 1.0667626 -0.31369171 71
2.8487887 1.3084899 0.49652308 46
2.3719945 1.0889902 -0.22834805 57
2.9510748 1.3548478 0.6311962 43
2.4451468 1.122058 -0.14099309 65
1.4205811 0.65159303 0.36082149 9
2.4921479 1.1425736 -0.047854498 54
3.1295991 1.4341645 0.92243111 13
2.1140924 0.965231 -0.62271863 60
2.5594258 1.1685568 0.049111072 53
2.189476 0.9991858 -0.55562907 76
2.6330347 1.201054 0.15166962 58
2.2061336 1.0058588 -0.47129822 56
2.6977403 1.2294304 0.25937548 51
2.2812295 1.0391361 -0.39703071 61
2.7910435 1.2713645 0.3765763 48
2.3269577 1.0594758 -0.31393546 73
2.8389556 1.2919912 0.4940201 45
2.3866627 1.0856541 -0.22939391 67
2.9488719 1.3407729 0.62966973 44
2.4510615 1.1139144 -0.14109775 70
1.4211856 0.64557564 0.36037159 9
2.4961212 1.1338667 -0.047854498 54
3.1257906 1.4192387 0.9198429 30
2.1192095 0.95864135 -0.6232363 64
2.5527587 1.1542256 0.048901644 54
2.1806924 0.98553693 -0.5524798 73
2.6408513 1.1934999 0.15187897 62
2.2167885 1.0013841 -0.47282472 57
2.6983826 1.2183681 0.25902686 51
2.2776411 1.0279158 -0.39577925 63
2.7866375 1.2570442 0.3753576 49
2.3362539 1.0533882 -0.31466666 71
2.8470488 1.2836994 0.49464583 45
2.3704572 1.0683109 -0.22747649 61
2.9427943 1.3256323 0.62738001 45
2.4585764 1.1069933 -0.14130709 70
1.4216533 0.63981134 0.35992166 9
2.5018873 1.1259679 -0.047889404 58
3.1183934 1.4027705 0.91621947 42
2.1207795 0.95044833 -0.62271863 62
2.552923 1.1441177 0.048831832 52
2.1732776 0.97352052 -0.54978037 73
2.6450016 1.1842737 0.15187897 62
2.2131023 0.99043256 -0.47129822 57
2.7044382 1.2097543 0.25920117 52
2.2702179 1.0155181 -0.39390203 65
2.7781053 1.242124 0.37365144 46
2.3342977 1.0432048 -0.31393546 73
2.8515127 1.2737528 0.49464583 44
2.3741722 1.0600294 -0.22747649 59
2.938211 1.3118635 0.62547189 46
2.4421716 1.0898802 -0.1401557 65
1.4291061 0.63747537 0.36127138 9
2.5003235 1.1147842 -0.04778469 55
3.1197419 1.3903047 0.9151842 42
2.1239195 0.94341075 -0.62271863 62
2.553246 1.1335758 0.048762023 52
2.1713195 0.96355659 -0.54843068 76
2.6290357 1.1661276 0.15072757 60
2.212785 0.98149663 -0.47053501 57
2.706614 1.1999712 0.25902686 50
2.2773609 1.0091873 -0.39452776 63
2.7715335 1.2275974 0.37218902 44
2.3270342 1.0302278 -0.31247303 77
2.8559418 1.2637906 0.49464583 45
2.3815014 1.0533489 -0.22782511 61
2.9427714 1.3016013 0.62547189 46
2.4368279 1.0773104 -0.13963234 62
1.4134982 0.62460607 0.35677236 7
2.5078573 1.1076672 -0.047854498 54
3.1210413 1.3778449 0.91414887 42
2.1273627 0.93562037 -0.62271863 59
2.566339 1.1286834 0.04893655 52
2.1728854 0.95518762 -0.54798079 73
2.6276047 1.1545324 0.15041354 62
2.2091773 0.97022253 -0.46900854 58
2.7146425 1.1916451 0.25937548 50
2.2774267 0.99924684 -0.39390203 63
2.773984 1.217117 0.37194526 45
2.3233447 1.018909 -0.31149808 73
2.8422439 1.2458839 0.49151716 46
2.3815141 1.0434297 -0.22747649 61
2.9493215 1.2915922 0.62585354 44
2.449908 1.0723766 -0.1401557 65
1.4104217 0.61707813 0.35542265 5
2.4897246 1.0892874 -0.047435641 54
3.1258323 1.3669412 0.91414887 46
2.1235316 0.925102 -0.62064809 60
2.559459 1.1144779 0.048727117 51
2.1853058 0.95110595 -0.55023026 76
2.6299872 1.1440979 0.15030889 60
2.2089503 0.96093833 -0.46824533 57
2.7041686 1.1758056 0.25798097 49
2.284524 0.99286616 -0.39452776 63
2.7820678 1.2085241 0.37243277 45
2.3307049 1.0119684 -0.31198555 73
2.8431668 1.233886 0.49089143 45
2.3741755 1.0303518 -0.22643061 59
2.9556122 1.2820725 0.62623513 48
2.4499717 1.0622286 -0.13994636 63
1.4232957 0.61680001 0.35812208 4
2.4918649 1.0793604 -0.047400735 58
3.1184113 1.3501033 0.91052544 47
2.1267481 0.91768324 -0.62064809 57
2.5523162 1.1007859 0.048517693 50
2.1796649 0.9396143 -0.54798079 69
2.6376333 1.1364905 0.15051822 60
2.2158971 0.95477486 -0.46900854 58
2.6972768 1.1616312 0.25693512 48
2.2734606 0.97863674 -0.39202482 65
2.7771523 1.194882 0.37121406 47
2.334223 1.0038271 -0.31198555 73
2.8474569 1.2239532 0.49089143 45
2.3704362 1.0189103 -0.22573337 61
2.940228 1.2632221 0.62203735 44
2.4499941 1.0520945 -0.13973701 65
1.4200677 0.6095224 0.35677236 3
2.4992931 1.0722318 -0.047470544 58
3.1266558 1.3407332 0.91156071 48
2.1281619 0.90949523 -0.62013048 64
2.5451093 1.0871572 0.048308261 52
2.1739707 0.9281736 -0.54573125 66
2.6450617 1.1293052 0.15072757 60
2.215605 0.94549352 -0.46824533 58
2.7013149 1.1522095 0.25693512 49
2.2750463 0.96991974 -0.39171195 67
2.7740011 1.1820685 0.37023908 46
2.3377125 0.99567348 -0.31198555 77
2.8551345 1.2160527 0.49151716 43
2.3776448 1.0121899 -0.226082 61
2.9283605 1.2460335 0.61860281 46
2.4334342 1.0349382 -0.13858563 56
3.0147493 1.2815481 0.75628549 3
2.4991548 1.0623727 -0.047400735 62
3.1150823 1.3235589 0.90690196 51
2.1331029 0.90281337 -0.62064809 62
2.5560668 1.0818284 0.048447877 51
2.1752415 0.92020053 -0.54528135 69
2.6324315 1.1130656 0.14978553 58
2.2188923 0.93775326 -0.46824533 57
2.7071562 1.1435477 0.25710943 52
2.27461 0.96083307 -0.39108619 67
2.7724195 1.1705459 0.36950788 47
2.3300283 0.98328435 -0.31052312 73
2.8557222 1.2045428 0.49089143 42
2.3885071 1.0069807 -0.22677925 59
2.9415221 1.2401285 0.62051088 45
2.4294908 1.0237598 -0.13816693 56
3.0153902 1.2700316 0.7553857 14
2.5120628 1.0575224 -0.047575258 55
3.128587 1.3164226 0.90949017 48
2.1289587 0.89274698 -0.61857754 62
2.5598273 1.0728999 0.048447877 50
2.1766429 0.91184944 -0.54483145 76
2.6289308 1.1007848 0.14936683 58
2.2111237 0.92584074 -0.46595559 60
2.7054195 1.1322571 0.25658652 50
2.2834172 0.95517474 -0.39202482 65
2.7709942 1.1585647 0.36877668 47
2.3261204 0.97208279 -0.30954817 77
2.8453269 1.1884769 0.48838848 42
2.3918333 0.99905509 -0.22677925 59
2.9476445 1.2306103 0.62089252 46
2.4459524 1.0206565 -0.13889964 57
3.0144091 1.2572483 0.75403595 30
2.4917445 1.0387439 -0.047121495 58
3.1295972 1.3040068 0.9084549 48
2.1249251 0.88234717 -0.61650699 60
2.5654042 1.0647238 0.048482787 52
2.1852129 0.9064855 -0.5461812 69
2.6346023 1.0923669 0.14947151 60
2.2143419 0.91811728 -0.46595559 58
2.7019932 1.1197547 0.25588927 48
2.2849131 0.94644189 -0.39171195 67
2.7786896 1.1504042 0.36926416 48
2.3276651 0.9631986 -0.30930442 71
2.8458073 1.1770267 0.48776269 42
2.3805771 0.98460734 -0.22538476 61
2.9428501 1.2165638 0.6189844 45
2.4495001 1.0121129 -0.13889964 57
3.0259843 1.249693 0.75583553 44
2.4916582 1.0285143 -0.047051687 62
3.1216283 1.2879175 0.90483141 46
2.1262057 0.87418914 -0.61598933 64
2.5524583 1.0489222 0.048168644 49
2.1883638 0.89885259 -0.5461812 73
2.6365519 1.0824045 0.14936683 62
2.2139013 0.90889049 -0.46519238 58
2.6985123 1.1072915 0.25519201 47
2.2735813 0.93246418 -0.389209 67
2.7753413 1.1376853 0.36828917 47
2.3383601 0.9580785 -0.31027937 71
2.8498983 1.1670865 0.48776269 42
2.3804817 0.97436649 -0.22503611 61
2.9379945 1.2025648 0.61707634 46
2.4493213 1.0020431 -0.13869029 57
3.0357392 1.2413361 0.75718528 45
2.4933822 1.0190544 -0.047016785 55
3.1207404 1.2748209 0.90327853 42
2.1311846 0.86711895 -0.61650699 62
2.5542514 1.0392529 0.048133738 52
2.1752415 0.88460076 -0.54213202 66
2.6384642 1.0724419 0.14926216 60
2.2208552 0.90224832 -0.46595559 58
2.6988604 1.0958934 0.25484338 47
2.2733233 0.92263848 -0.38858327 70
2.7719386 1.1250038 0.36731425 47
2.3343322 0.94692612 -0.30930442 71
2.8576169 1.1586151 0.48838848 44
2.3838687 0.96605045 -0.22503611 61
2.9296446 1.1866299 0.61440504 44
2.4326129 0.98481548 -0.1375389 56
3.0366559 1.2287387 0.75628549 45
2.5061929 1.0140945 -0.047191311 58
3.1215887 1.2624731 0.9022432 45
2.1341987 0.85967386 -0.61650699 62
2.5654638 1.0328708 0.048273355 52
2.176661 0.8758952 -0.54168218 69
2.6236627 1.05577 0.14821544 55
2.2203486 0.89302492 -0.46519238 60
2.7063673 1.0879517 0.25519201 48
2.2801957 0.91617095 -0.389209 67
2.7649903 1.1103985 0.36585179 46
2.3322611 0.93614388 -0.30857319 73
2.854311 1.145689 0.48713696 43
2.3909245 0.95920759 -0.22538476 61
2.9392357 1.1785874 0.61554986 48
2.4323282 0.9748314 -0.13732956 55
3.0282633 1.2130592 0.7531361 48
2.5004358 1.0016226 -0.047016785 55
3.1170094 1.247978 0.89965498 46
2.1353917 0.85150373 -0.61598933 64
2.5614445 1.0213956 0.048133738 52
2.1777432 0.86795121 -0.54123223 66
2.6254768 1.0458654 0.14811078 58
2.216156 0.88236445 -0.46366587 60
2.7101479 1.0784999 0.25519201 50
2.2868917 0.91006565 -0.38983473 67
2.7705023 1.1019564 0.36609554 47
2.3242843 0.92400515 -0.30711079 73
2.8472776 1.1313441 0.48525977 42
2.3905549 0.94938433 -0.22503611 59
2.9431281 1.1688331 0.61554986 49
2.4355474 0.96676069 -0.13732956 56
3.0195892 1.1979806 0.74998683 44
2.4946225 0.98920202 -0.046842258 58
3.124939 1.2385128 0.90069032 46
2.1274228 0.84016067 -0.61288351 64
2.5594146 1.010245 0.048029024 50
2.1807599 0.86034358 -0.54123223 66
2.6291108 1.0366962 0.14811078 58
2.2099376 0.87141019 -0.46175778 62
2.6988807 1.0636617 0.25379753 44
2.2827032 0.89918089 -0.38858327 70
2.7724841 1.0915533 0.36585179 46
2.3274953 0.9158867 -0.30711079 73
2.8475327 1.1199515 0.48463401 42
2.3881276 0.93926466 -0.2245132 63
2.9435353 1.1571182 0.61478662 46
2.4463427 0.9611752 -0.13774826 56
3.021939 1.1867199 0.74953693 44
2.4887533 0.97683436 -0.046667732 55
3.1220493 1.2247757 0.89861977 46
2.1231458 0.8299157 -0.61081296 66
2.5517504 0.99693805 0.047819596 51
2.1873801 0.85414416 -0.54213202 66
2.6345744 1.0282381 0.14821544 60
2.2184527 0.86583149 -0.46290264 60
2.6988649 1.0527856 0.2534489 49
2.2711043 0.88546735 -0.38608032 70
2.7762778 1.0818683 0.36585179 45
2.3417768 0.91207862 -0.30857319 73
2.8495839 1.1092889 0.48432118 42
2.3839645 0.9280321 -0.22381593 63
2.9402382 1.143988 0.61326015 48
2.4534061 0.95407706 -0.1379576 55
3.027879 1.1768707 0.74998683 44
2.4977393 0.97031516 -0.04677245 58
3.1118989 1.2082754 0.89447862 46
2.1332366 0.82528698 -0.61288351 64
2.5514836 0.98658395 0.047749784 51
2.1739891 0.84018064 -0.53808296 69
2.6344218 1.0175954 0.1480061 55
2.2214618 0.85808182 -0.46290264 58
2.7025228 1.0433601 0.2534489 44
2.2704957 0.87611145 -0.3854546 67
2.7652204 1.0664555 0.36390188 51
2.3375368 0.90104449 -0.30759826 73
2.8589692 1.1014651 0.48525977 43
2.3946266 0.92256951 -0.2245132 63
2.9332211 1.1294841 0.61097044 46
2.4362168 0.93761772 -0.1368062 54
3.0319691 1.1662934 0.74998683 44
2.5048444 0.96302509 -0.046842258 58
3.1160972 1.1974063 0.89447862 47
2.1361043 0.81783599 -0.61288351 64
2.5549121 0.97767091 0.047749784 51
2.1714485 0.83049786 -0.53673321 66
2.6230328 1.0026888 0.14716873 55
2.2207758 0.84892076 -0.46213943 60
2.7098708 1.0353417 0.25379753 49
2.2772312 0.86958939 -0.38608032 73
2.7670715 1.0560894 0.36365816 52
2.3295395 0.88863373 -0.3061358 73
2.8554134 1.088663 0.48400828 42
2.3978326 0.91420442 -0.2245132 63
2.9298072 1.1164426 0.60944396 46
2.433876 0.92697477 -0.13649218 55
3.0105245 1.1459961 0.74368823 44
2.4969766 0.9500097 -0.04663283 58
3.1292863 1.1899556 0.89706683 47
2.1461728 0.8131119 -0.61495411 64
2.5639195 0.97087175 0.047854498 52
2.1798012 0.82498389 -0.53808296 69
2.622781 0.99211258 0.14695938 55
2.2182169 0.8390792 -0.46099457 62
2.7060134 1.0230583 0.25310028 45
2.2876432 0.86442953 -0.38733178 73
2.7725983 1.0471246 0.36390188 52
2.3289135 0.87909412 -0.30564833 77
2.8481066 1.074506 0.48213109 44
2.3916881 0.90231287 -0.22364163 61
2.9391978 1.108286 0.61058879 45
2.4370971 0.91847265 -0.13649218 55
3.0108588 1.1341071 0.74278837 45
2.4871776 0.93635523 -0.046388499 55
3.1153402 1.1722209 0.89189047 49
2.1272905 0.79747826 -0.60874242 66
