# .PCD v0.7 - Point Cloud Data file format
VERSION 0.7
FIELDS x y z
SIZE 4 4 4
TYPE F F F
COUNT 1 1 1
WIDTH 1450
HEIGHT 1
VIEWPOINT 0 0 0 1 0 0 0
POINTS 1450
DATA ascii
2.579021 0.55054188 0.41768005
1.6367916 0.34910533 -0.14642164
2.5845065 0.55076844 0.51365787
1.9534688 0.41593644 -0.10467192
2.5808389 0.54904521 0.60916746
1.9344095 0.41152444 -0.034520861
1.3212464 0.27891222 -0.36182904
1.9331682 0.40773517 0.034485955
1.5178607 0.31986293 -0.35812208
2.2259889 0.4690887 0.11922132
1.6579375 0.34908035 -0.32933635
2.1875796 0.46019831 0.19557749
1.6682973 0.35065269 -0.27000591
2.5818696 0.54220361 0.32392874
1.6804492 0.35290152 -0.21083398
2.5770605 0.54072404 0.41705433
1.6458002 0.34502447 -0.1471189
2.569119 0.53812164 0.51022327
1.9509991 0.40829629 -0.10446258
2.5864601 0.54128265 0.61006725
1.9377918 0.40517837 -0.034555767
2.5585589 0.53451151 0.70036435
1.333513 0.27688602 -0.36493486
1.9188457 0.39807218 0.034206714
1.501739 0.31126916 -0.35407296
2.2236204 0.46089527 0.11901198
1.6667757 0.34517333 -0.33086282
2.1851912 0.45213345 0.19522884
1.6617129 0.34351921 -0.26875445
2.585597 0.53404087 0.32417247
1.679666 0.34692577 -0.21059024
2.5788395 0.53217453 0.41705433
1.6508379 0.34036991 -0.14746751
2.5670435 0.52880746 0.50946003
1.9425613 0.39981061 -0.10393922
2.5691538 0.52877349 0.60556823
1.9489182 0.4007645 -0.034730289
2.5603173 0.52602464 0.70036435
1.3495663 0.27555379 -0.36907598
1.9299519 0.39370579 0.034381241
1.5218577 0.31017965 -0.35857198
2.2115161 0.45034024 0.11827926
1.6640638 0.33886027 -0.33009958
2.2042501 0.44846004 0.19679767
1.6763935 0.34076163 -0.27094454
2.5795729 0.52388275 0.32319754
1.667249 0.33829689 -0.20888408
2.5690653 0.52081513 0.41517711
1.6637325 0.33697879 -0.14851339
2.5764802 0.52185023 0.51098651
1.9399612 0.39257479 -0.10372987
2.5576134 0.51709831 0.60241896
1.9483449 0.39356345 -0.034695383
2.5659254 0.51784796 0.70139962
1.3524613 0.27098536 -0.36959362
1.9293535 0.38657415 0.034346335
1.5305746 0.30639514 -0.36037159
2.2150331 0.44300899 0.11838394
1.6537434 0.3304511 -0.32780987
2.1941559 0.4380382 0.19575179
1.6718196 0.33345547 -0.27000591
2.5852792 0.51565099 0.32368499
1.6723132 0.3332513 -0.20937155
2.5108094 0.49988759 0.40547815
1.653174 0.32883659 -0.14746751
2.5803008 0.51278669 0.5113681
1.9413869 0.38546225 -0.10372987
2.5575798 0.5073421 0.601969
1.9242079 0.38170138 -0.034241624
2.5677171 0.50888854 0.70139962
1.3382349 0.26327905 -0.3654525
1.9268333 0.3787283 0.034276526
1.5278629 0.30003181 -0.35947177
2.2205617 0.43565702 0.11859328
1.6587399 0.32543194 -0.32857311
2.189806 0.42922616 0.19522884
1.6865432 0.33027545 -0.27219599
2.5871515 0.5061726 0.32368499
1.67742 0.32788092 -0.20985903
2.4777274 0.48386604 0.39984655
1.650457 0.32201248 -0.1471189
2.5878561 0.50490373 0.51251298
1.9525225 0.3805933 -0.10425323
2.5727246 0.50101948 0.60511833
1.925594 0.37464666 -0.034241624
1.3410877 0.25873864 -0.36597013
1.92618 0.37162167 0.034241624
1.5289009 0.29469708 -0.35947177
2.2259915 0.42865795 0.11880264
1.6637772 0.32009235 -0.32933635
2.1874514 0.42044556 0.19488023
1.6605835 0.31887603 -0.26781586
2.5616102 0.49189705 0.32027265
1.6844026 0.32314602 -0.21059024
2.4580605 0.47112444 0.39640498
1.6320027 0.31250191 -0.14537577
1.948019 0.37230998 -0.10393922
3.359349 0.64143741 0.7895782
1.9347469 0.36942247 -0.034381241
2.6566865 0.50679111 0.72469336
1.3230014 0.25046203 -0.36079377
1.9177048 0.36270168 0.034067098
1.5242263 0.28800556 -0.35812208
2.2255118 0.42051482 0.11869796
1.6648844 0.3142823 -0.32933635
2.1967375 0.41428381 0.19557749
1.6636275 0.31344366 -0.26812872
2.4814608 0.46708304 0.31003565
1.681619 0.31652954 -0.21010277
2.4558077 0.46181059 0.39577925
1.6330836 0.30680358 -0.14537577
1.9394916 0.36366692 -0.10341586
3.3997648 0.6374774 0.79857624
1.941921 0.36377168 -0.034485955
3.3857124 0.63361931 0.92294878
1.3504151 0.25101635 -0.36804068
1.9228292 0.35707 0.034136906
1.5136765 0.28081697 -0.35542265
2.2033288 0.40876111 0.1174419
1.6659175 0.30875993 -0.32933635
2.2098536 0.40917373 0.19662334
1.6685425 0.30864409 -0.26875445
2.4771399 0.45776993 0.30930442
1.6748511 0.30950874 -0.20912781
2.4573255 0.45366478 0.39577925
1.6458479 0.30355498 -0.14642164
3.3884716 0.62434751 0.6697396
1.9426513 0.3575944 -0.10352053
3.461273 0.63713533 0.81252325
1.9470502 0.35805377 -0.034555767
3.4542971 0.63460475 0.94106609
1.3417377 0.24480271 -0.3654525
1.92597 0.35105067 0.034171812
1.518434 0.2764937 -0.35632247
2.2184973 0.40356916 0.11817461
1.6514798 0.3004224 -0.3262834
2.2072778 0.4011313 0.19627473
1.6734442 0.30381459 -0.26938018
2.4825509 0.45026076 0.30979189
1.6759212 0.30366087 -0.20912781
2.4413998 0.44191703 0.39296341
1.6390551 0.29638946 -0.1457244
3.3924553 0.61345589 0.67012119
1.9477571 0.3518618 -0.10372987
3.4864888 0.62920326 0.81792206
1.9207366 0.34628737 -0.034067098
3.509726 0.63213372 0.95555997
1.3160015 0.23512675 -0.35820559
1.9429318 0.34713882 0.034451049
1.5404924 0.27495855 -0.36127138
2.21596 0.39512199 0.11796526
1.6525698 0.29436779 -0.3262834
2.1930404 0.3902455 0.19488023
1.6745465 0.29767942 -0.26938018
2.4899707 0.44263512 0.31052312
1.6730621 0.29711434 -0.20864034
2.4448729 0.43373671 0.3932763
1.6322324 0.28927585 -0.14502715
3.2071617 0.56781876 0.63310426
1.9490339 0.34471911 -0.10372987
3.5213947 0.62218523 0.82557034
1.9298103 0.34097272 -0.034206714
3.466253 0.61181861 0.94313669
1.3244262 0.23186383 -0.36027613
1.9244931 0.3365708 0.034102004
1.5453295 0.26998091 -0.3621712
2.2213285 0.38768366 0.11817461
1.6535873 0.28859702 -0.3262834
2.1904638 0.38190404 0.19453162
1.6600068 0.28912038 -0.26687723
2.4876649 0.43282476 0.31003565
1.6760955 0.29132056 -0.20888408
2.4639623 0.42781475 0.39609212
1.6470236 0.28567457 -0.14624733
2.7448747 0.47609577 0.54151595
1.950225 0.33791494 -0.10372987
3.1126249 0.53876263 0.72929132
1.9330178 0.33423758 -0.034241624
3.089643 0.53367555 0.84012663
1.3614452 0.23320535 -0.37011126
1.9532502 0.33457711 0.034590669
1.5232123 0.26064196 -0.35677236
2.2226682 0.37992787 0.11817461
1.662375 0.28385654 -0.32780987
2.2036333 0.37588152 0.19557749
1.6630025 0.28336635 -0.2671901
2.4735053 0.42147154 0.30808574
1.6790591 0.28580078 -0.20912781
2.4751778 0.42086628 0.39765644
1.6539034 0.28092492 -0.14677027
2.7272453 0.4627485 0.53769976
1.9435741 0.32942826 -0.10331119
3.1280282 0.52962863 0.73244059
1.9381157 0.32815608 -0.034311432
3.0819633 0.5212757 0.83753842
1.3412147 0.22540541 -0.36441725
1.9504048 0.32743534 0.034520861
1.5240682 0.25558895 -0.35677236
2.2120967 0.37057564 0.11754657
1.6671309 0.27928168 -0.32857311
2.2028382 0.36862832 0.19540317
1.6677812 0.2787922 -0.26781586
2.4807634 0.41424817 0.30881694
1.6643335 0.2776179 -0.20717789
2.4746113 0.41233304 0.39734361
1.6587082 0.27638286 -0.1471189
2.7441783 0.45675755 0.54075271
1.9367183 0.32201076 -0.1028925
3.0893064 0.51309311 0.72299272
1.9332751 0.3207458 -0.034206714
3.1027336 0.5142104 0.84271485
1.3534307 0.22260311 -0.36752307
1.945616 0.31965396 0.034416147
1.5287971 0.25089818 -0.35767215
2.209435 0.36220494 0.11733723
1.6564714 0.27155453 -0.3262834
2.1982124 0.3599723 0.19488023
1.6745926 0.27392507 -0.26875445
2.4821947 0.40558547 0.30881694
1.6613739 0.2711682 -0.20669043
2.462388 0.40146676 0.39515349
1.6380323 0.26706412 -0.14520147
2.755445 0.448753 0.54266083
1.9417732 0.31589115 -0.10310185
3.0833843 0.50105667 0.72119308
1.9324092 0.31367451 -0.034171812
3.0987885 0.50245124 0.84116197
1.3198676 0.21235402 -0.35820559
1.94672 0.31286004 0.034416147
1.5277396 0.24525087 -0.35722226
2.2146299 0.35512328 0.11754657
1.6574092 0.26577106 -0.3262834
2.1935537 0.35135099 0.19435729
1.6735882 0.26776546 -0.26844159
2.4875154 0.39754561 0.30930442
1.6681911 0.26630563 -0.20742163
2.4657252 0.39317939 0.39546639
1.6527274 0.26354045 -0.14642164
2.7531168 0.43851492 0.54189759
1.9468089 0.30973828 -0.10331119
3.088964 0.49090147 0.72209287
1.9334923 0.30692765 -0.034171812
3.0852594 0.48921025 0.83702081
1.3473183 0.21194813 -0.3654525
1.9359475 0.30419978 0.034206714
1.524736 0.2393133 -0.35632247
2.2257221 0.34893674 0.11806992
1.6583269 0.25998357 -0.3262834
2.194767 0.34369132 0.19435729
1.6667058 0.26070195 -0.2671901
2.4810429 0.38763374 0.30832946
1.671072 0.26078659 -0.20766538
2.4553716 0.38274619 0.39358914
1.6201705 0.25255406 -0.14345835
2.7468715 0.42769316 0.54037106
1.9478784 0.30294022 -0.10331119
3.0675509 0.47652698 0.71669406
1.9385041 0.30078936 -0.034241624
1.3480499 0.2072441 -0.3654525
1.9330444 0.29683363 0.034136906
1.5120785 0.23192102 -0.35317314
2.2090993 0.33882931 0.11712788
1.6669867 0.2553829 -0.32780987
2.1880755 0.33482304 0.19366007
1.6617477 0.25398669 -0.26625147
2.4784563 0.37837112 0.30784199
1.6798217 0.25614917 -0.20864034
2.4722497 0.37698331 0.39609212
1.6466479 0.25079662 -0.1457244
2.7405839 0.41692039 0.53884465
1.9331272 0.29373911 -0.10247381
3.0229554 0.45879903 0.70589644
1.9394908 0.29435977 -0.034241624
3.3253617 0.50410044 0.90120792
1.3373026 0.20081627 -0.36234668
1.9419283 0.29161 0.034276526
1.518621 0.22777225 -0.35452285
2.2122438 0.33141243 0.11723255
1.6639847 0.24898176 -0.32704663
2.2010541 0.3289496 0.19470593
1.6586735 0.24789032 -0.26562575
2.4718437 0.36897957 0.30686703
1.6571013 0.24706405 -0.20571546
2.4774585 0.36893249 0.39671785
1.657367 0.24651313 -0.14659595
2.7536025 0.40956482 0.54113436
1.9380419 0.28791347 -0.10268316
3.0109668 0.446769 0.70274711
1.9365504 0.28700107 -0.034171812
4.0399146 0.5980038 1.0942869
1.3494294 0.19806339 -0.3654525
1.9389772 0.28424898 0.034206714
1.5348322 0.22472879 -0.35812208
2.211411 0.32339868 0.11712788
1.6531456 0.24175745 -0.32475692
2.2041039 0.3219372 0.19488023
1.6693021 0.2435251 -0.2671901
2.4829383 0.36177936 0.30808574
1.6658112 0.24242203 -0.20669043
2.4650471 0.35829389 0.39452776
1.6463871 0.23900849 -0.14555009
2.7627871 0.40107796 0.54266083
1.9469415 0.28229347 -0.10310185
3.0105793 0.4359774 0.70229721
1.9296238 0.27909487 -0.034032192
3.9654975 0.57285094 1.0735815
1.344409 0.19229585 -0.36389959
1.9458963 0.27832884 0.034311432
1.5221032 0.21744032 -0.35497275
2.2065947 0.31483054 0.11681387
1.6540205 0.23569712 -0.32475692
2.1914618 0.31189093 0.19366007
1.672139 0.23768272 -0.26750296
2.4822209 0.35283011 0.30784199
1.6705779 0.23716417 -0.20717789
2.4701946 0.35024107 0.39515349
1.6334026 0.23130417 -0.14432991
2.7603505 0.39039987 0.54189759
1.9440078 0.27459648 -0.1028925
3.0121572 0.42493939 0.70229721
1.9365267 0.27319506 -0.034136906
3.320893 0.46790478 0.89861977
1.3393321 0.1868009 -0.36234668
1.93502 0.26953909 0.034102004
1.5421914 0.21454559 -0.35947177
2.2294946 0.30976474 0.11796526
1.6587224 0.23046197 -0.32552016
2.1846428 0.30314448 0.1929628
1.6592618 0.22994663 -0.26531288
2.4913628 0.3448191 0.30881694
1.6793016 0.23212643 -0.20815286
2.4773324 0.34199595 0.39609212
1.6420945 0.22669131 -0.14502715
2.7364137 0.37727553 0.53693652
1.9449544 0.26780936 -0.1028925
3.0194139 0.41521952 0.7036469
1.9315716 0.26527968 -0.034032192
3.2709098 0.44864118 0.88464355
1.3361473 0.1816045 -0.36131141
1.939912 0.26332131 0.034171812
1.515896 0.2054957 -0.35317314
2.2068117 0.29876551 0.11670919
1.6595167 0.2246709 -0.32552016
2.1935856 0.29658511 0.19366007
1.6561393 0.22362421 -0.26468715
2.4768131 0.33399755 0.30686703
1.6801016 0.22626349 -0.20815286
2.4745955 0.33281907 0.39546639
1.6428758 0.2209575 -0.14502715
2.7396598 0.367982 0.53731817
1.9379591 0.25995687 -0.10247381
3.0189133 0.40441769 0.703197
1.934468 0.25880027 -0.034067098
3.2820303 0.43850067 0.88723171
1.3635854 0.18048796 -0.36855832
1.9328896 0.25549942 0.034032192
1.5339917 0.20249937 -0.35722226
2.2097704 0.29170766 0.11681387
1.6680766 0.21990269 -0.32704663
2.2064598 0.29048601 0.19470593
1.6647437 0.21887298 -0.26593861
2.4700911 0.32431668 0.30589208
1.6651351 0.21833239 -0.20620294
2.4776442 0.32486853 0.39577925
1.639686 0.21470523 -0.14467853
2.7409275 0.35841712 0.53731817
1.9408352 0.25344861 -0.10257848
3.0087123 0.39236441 0.70049757
1.9372985 0.25264198 -0.034102004
3.2719724 0.42611685 0.88412589
1.3642071 0.17572668 -0.36855832
1.9515761 0.25138706 0.034346335
1.5269235 0.19641642 -0.35542265
2.2107754 0.28399178 0.11681387
1.6532557 0.21207982 -0.32399368
2.2035077 0.28227639 0.19435729
1.6752572 0.21460581 -0.26750296
2.4790289 0.31713182 0.30686703
1.6717575 0.21356362 -0.20693417
2.4650464 0.31446865 0.39358914
1.652284 0.21049061 -0.1457244
2.7596283 0.35155934 0.54075271
1.9476091 0.24776682 -0.1028925
3.0099967 0.38238707 0.70049757
1.9262657 0.24436933 -0.033892576
3.2830226 0.41590604 0.8867141
1.3436971 0.16855715 -0.36286432
1.9405365 0.2430833 0.034136906
1.5314673 0.19156863 -0.35632247
2.2196805 0.27726263 0.11723255
1.6500536 0.20610991 -0.32323048
2.1846607 0.27250209 0.19261418
1.6759961 0.20875633 -0.26750296
2.4880006 0.30945587 0.30784199
1.6646128 0.20674926 -0.2059592
2.4582877 0.30488893 0.39233768
1.6371552 0.20304802 -0.14432991
2.7549937 0.34119967 0.53960788
1.9563906 0.24194875 -0.10331119
3.0190496 0.37283248 0.70229721
1.927107 0.23764341 -0.033892576
3.2671976 0.40232095 0.88205534
1.3500303 0.16456732 -0.36441725
1.9413732 0.23630756 0.034136906
1.5282576 0.18575096 -0.35542265
2.2127039 0.26855072 0.11681387
1.6585587 0.20129541 -0.32475692
2.1875768 0.26511368 0.1927885
1.6629872 0.20124309 -0.26531288
2.4851239 0.30029351 0.30735451
1.6771491 0.20236371 -0.20742163
2.4671819 0.29725051 0.39358914
1.6279634 0.19613998 -0.14345835
2.7405744 0.32970545 0.53655493
1.9433421 0.23345017 -0.10257848
3.0183976 0.36205885 0.70184726
1.9318957 0.23139113 -0.033962384
3.2570732 0.38953653 0.87894952
1.3544334 0.1603076 -0.3654525
1.9262992 0.22765233 0.03385767
1.5366379 0.18132979 -0.35722226
2.2116444 0.26059097 0.11670919
1.6670505 0.19642322 -0.3262834
2.1964037 0.25840765 0.19348574
1.6617177 0.19520764 -0.26500002
2.4743278 0.29022875 0.30589208
1.6798171 0.19673862 -0.20766538
2.4682043 0.28863835 0.39358914
1.6464481 0.19254002 -0.14502715
2.7436588 0.32036403 0.53693652
1.93621 0.22573955 -0.1021598
3.0215786 0.35174787 0.70229721
1.9386507 0.22533828 -0.034067098
3.2776029 0.38039109 0.88412589
1.3492271 0.15491794 -0.36389959
1.9390022 0.22229294 0.034067098
1.525645 0.1746347 -0.35452285
2.2065878 0.25218946 0.11639518
1.6599237 0.18971157 -0.32475692
2.2032311 0.2514163 0.19400868
1.6604261 0.18918189 -0.26468715
2.4753258 0.28159049 0.30589208
1.6647142 0.18908189 -0.20571546
2.4770482 0.28091067 0.39484066
1.6570088 0.18791376 -0.1458987
2.7506125 0.31144813 0.53808141
1.9369862 0.21897995 -0.1021598
3.0053601 0.33923045 0.69824809
1.9374384 0.21834527 -0.034032192
3.2750711 0.36851645 0.88309062
1.3555195 0.1508486 -0.3654525
1.9437414 0.21596433 0.034136906
1.5223715 0.16887873 -0.35362303
2.2134097 0.24514548 0.11670919
1.6605757 0.18391655 -0.32475692
2.2001348 0.24328551 0.19366007
1.6689302 0.18425219 -0.26593861
2.4762936 0.2729488 0.30589208
1.6693103 0.18370363 -0.20620294
2.4662321 0.27096853 0.39296341
1.6576546 0.18212894 -0.1458987
2.7536342 0.30205944 0.538463
1.9417095 0.21265163 -0.10236914
3.006526 0.32873836 0.69824809
1.9282492 0.21049732 -0.03385767
3.2744172 0.3568719 0.88257295
1.3464342 0.14508086 -0.36286432
1.9385186 0.20853686 0.034032192
1.526827 0.16397943 -0.35452285
2.200351 0.23592669 0.11597649
1.6494952 0.17686267 -0.32246721
2.187103 0.23412012 0.19243988
1.6695632 0.17842497 -0.26593861
2.4890745 0.26556617 0.30735451
1.6699414 0.17787586 -0.20620294
2.459306 0.26152194 0.39171195
1.6424305 0.17465565 -0.14450422
2.7527199 0.29223764 0.53808141
1.9404539 0.20566241 -0.10226447
3.0037794 0.31783071 0.6973483
1.9269836 0.20355462 -0.033822764
3.2679582 0.34463018 0.88050246
1.3469324 0.14038032 -0.36286432
1.9292901 0.20073459 0.03385767
1.5235134 0.15824574 -0.35362303
2.2250004 0.23071702 0.11723255
1.6540082 0.17150912 -0.32323048
2.185925 0.22627959 0.19226557
1.6583865 0.17137727 -0.26406142
2.4860373 0.25646919 0.30686703
1.688324 0.17387624 -0.20839658
2.4641337 0.25333914 0.39233768
1.6509582 0.16973604 -0.14520147
2.7361457 0.28082365 0.53464681
1.9491074 0.19970241 -0.10268316
3.018441 0.30873084 0.70049757
1.9376291 0.19784297 -0.033997286
3.2710631 0.33341578 0.88102001
1.3647134 0.13741937 -0.36752307
1.9041132 0.19139931 0.033403907
1.5318124 0.1537053 -0.35542265
2.2019444 0.22055958 0.11597649
1.6624107 0.16651675 -0.32475692
2.1906664 0.21904482 0.19261418
1.6589746 0.16558772 -0.26406142
2.4790163 0.24700183 0.30589208
1.6750933 0.1666061 -0.20669043
2.4807289 0.24629802 0.39484066
1.6555058 0.16436613 -0.14555009
2.7410171 0.27165753 0.53541011
1.9398549 0.19191384 -0.1021598
3.0214396 0.29838479 0.70094746
1.940298 0.19127384 -0.034032192
3.2798972 0.32275304 0.88309062
1.3690304 0.13302876 -0.36855832
1.9366153 0.18783987 0.033962384
1.5284604 0.14798208 -0.35452285
2.2106156 0.21402679 0.11639518
1.6590735 0.16033548 -0.32399368
2.2013338 0.21235262 0.19348574
1.6634749 0.16017482 -0.26468715
2.4759111 0.2379676 0.3054046
1.6559045 0.15886253 -0.20425305
2.4697335 0.23693886 0.39296341
1.6402029 0.15706651 -0.14415559
2.7497661 0.26283577 0.53693652
1.93256 0.18438296 -0.10174111
2.9991832 0.28561842 0.69554865
1.9429125 0.18502757 -0.034067098
3.2771032 0.31150821 0.88205534
1.3637162 0.12770842 -0.36700544
1.9332458 0.18104336 0.033892576
1.5173011 0.14182413 -0.35182345
2.1974285 0.20501074 0.11566247
1.6518039 0.15381469 -0.32246721
2.19611 0.20411347 0.1929628
1.6718646 0.15538843 -0.26593861
2.4806399 0.23012312 0.30589208
1.6603756 0.15373605 -0.20474051
2.462678 0.2275887 0.39171195
1.6427252 0.15152431 -0.14432991
2.7584422 0.2544376 0.538463
1.9411162 0.1787052 -0.1021598
2.998173 0.27549347 0.69509876
1.9236329 0.17641945 -0.03371805
3.2839422 0.30059609 0.88360828
1.344892 0.12144829 -0.36182904
1.9338659 0.17429437 0.033892576
1.5391368 0.13844766 -0.35677236
2.2020748 0.19807993 0.11587181
1.6523049 0.1483366 -0.32246721
2.1888373 0.19611798 0.19226557
1.6723968 0.14955194 -0.26593861
2.4774735 0.22110908 0.3054046
1.6648567 0.14829113 -0.205228
2.4653866 0.21959545 0.39202482
1.6332957 0.14519343 -0.14345835
2.7514913 0.24411257 0.53693652
1.9457072 0.17228015 -0.10236914
3.006881 0.26571301 0.69689834
1.9202236 0.16968691 -0.033648241
3.2637525 0.28783825 0.87791425
1.3549308 0.11758842 -0.36441725
1.9085345 0.16563325 0.033438813
1.5395874 0.13334325 -0.35677236
2.2107124 0.19107941 0.11629051
1.6567245 0.14290586 -0.32323048
2.1855383 0.18813607 0.19191694
1.663043 0.1431585 -0.26437429
2.4821489 0.2132314 0.30589208
1.6712726 0.14327846 -0.2059592
2.4700747 0.21132681 0.39265057
1.6357778 0.13966034 -0.14363267
2.7483737 0.23465216 0.53617334
1.9442776 0.16565783 -0.10226447
3.021338 0.25689667 0.70004767
1.9307669 0.16382787 -0.033822764
3.2724371 0.27709499 0.8799848
1.366884 0.1138196 -0.36752307
1.919093 0.15946446 0.033613335
1.5167608 0.12576741 -0.35137355
2.2093754 0.18319792 0.11618583
1.6689528 0.13809285 -0.32552016
2.1901529 0.18083328 0.19226557
1.6596192 0.13673814 -0.26374856
2.4710431 0.20315704 0.30442965
1.6777219 0.13763928 -0.20669043
2.4688282 0.20254117 0.39233768
1.6402268 0.13427582 -0.14398128
2.7394314 0.22377869 0.53426522
1.9289465 0.15723291 -0.10142709
3.0183744 0.24550301 0.69914788
1.9373064 0.15757307 -0.033927478
3.2791612 0.26613989 0.88153768
1.3691988 0.10920082 -0.36804068
1.9176179 0.15294012 0.033578429
1.5327104 0.12197328 -0.35497275
2.1980555 0.1745355 0.1155578
1.6694247 0.13226584 -0.32552016
2.200702 0.17397265 0.19313712
1.6679406 0.13185613 -0.26500002
2.4736822 0.19511823 0.30467337
1.6544214 0.13020554 -0.20376556
2.4695201 0.19392262 0.39233768
1.6486306 0.12917161 -0.14467853
2.7479873 0.21530713 0.5357917
1.935431 0.15130188 -0.10174111
3.0075152 0.23458518 0.6964485
1.9338572 0.15050067 -0.03385767
3.2781441 0.25454143 0.88102001
1.3676271 0.10451286 -0.36752307
1.9241215 0.14670284 0.033683144
1.5292406 0.11632635 -0.35407296
2.2006135 0.16739638 0.11566247
1.654193 0.12554087 -0.32246721
2.1992795 0.16652389 0.1929628
1.6742998 0.12647907 -0.26593861
2.4802866 0.18692917 0.3054046
1.6647633 0.12517509 -0.20498425
2.4662101 0.18543662 0.39171195
1.6569973 0.12429955 -0.14537577
2.7545955 0.20615239 0.53693652
1.9439141 0.14514121 -0.1021598
3.0063722 0.22394 0.69599855
1.926369 0.14349224 -0.03371805
3.2770438 0.2435268 0.88050246
1.3622034 0.099317171 -0.36597013
1.9186144 0.13988467 0.033578429
1.5335051 0.11153761 -0.35497275
2.2051685 0.16000228 0.11587181
1.6467886 0.11919931 -0.32094073
2.181963 0.15755397 0.191394
1.6707696 0.12064201 -0.26531288
2.484853 0.17898777 0.30589208
1.6612093 0.11936884 -0.20449677
2.4550204 0.17597874 0.38983473
1.6494719 0.11794594 -0.14467853
2.7513478 0.19673587 0.53617334
1.9443847 0.13869363 -0.1021598
3.0032105 0.21369325 0.69509876
1.9228688 0.1364834 -0.033648241
3.2643843 0.23113191 0.87687898
1.3490349 0.093861066 -0.36234668
1.9131063 0.13277075 0.033473715
1.5338851 0.10618432 -0.35497275
2.2077062 0.15244295 0.11597649
1.6550292 0.11398937 -0.32246721
2.1864486 0.15059064 0.19174263
1.6593561 0.11399722 -0.26343569
2.4834821 0.17017893 0.30564833
1.6814206 0.11492259 -0.20693417
2.4635029 0.1679448 0.39108619
1.6359588 0.11124166 -0.14345835
2.7481327 0.18638526 0.53541011
1.94488 0.13156568 -0.1021598
3.0136597 0.20386562 0.6973483
1.9333092 0.13044399 -0.033822764
3.2613163 0.21947536 0.87584364
1.3628634 0.089804776 -0.36597013
1.9095893 0.12549612 0.033403907
1.530375 0.10030633 -0.35407296
2.2062571 0.1442194 0.11587181
1.659354 0.10817843 -0.32323048
2.1889741 0.14270601 0.19191694
1.659763 0.10791419 -0.26343569
2.4722035 0.16030405 0.3041859
1.6640019 0.10760655 -0.20474051
2.4641018 0.15891503 0.39108619
1.6482854 0.10601248 -0.14450422
2.7409604 0.17580955 0.53388357
1.9413626 0.12418188 -0.10195045
3.0143867 0.19281931 0.6973483
1.9357702 0.123484 -0.03385767
3.2775223 0.20850247 0.8799848
1.3747523 0.085528418 -0.36907598
1.9240075 0.11936345 0.033648241
1.5326773 0.094816484 -0.35452285
2.2027602 0.13627003 0.11566247
1.6558025 0.10214333 -0.32246721
2.2014139 0.13541649 0.1929628
1.6601473 0.10182971 -0.26343569
2.470793 0.15112007 0.30394217
1.6564418 0.10131225 -0.20376556
2.4745004 0.15091453 0.39265057
1.6506341 0.10037874 -0.14467853
2.7474363 0.16659649 0.53502846
1.9377972 0.11716384 -0.10174111
3.0014253 0.18147331 0.69419897
1.9302012 0.11636554 -0.033752955
3.2782302 0.19705963 0.8799848
1.3557433 0.079833768 -0.36389959
1.918404 0.11263043 0.033543523
1.5407649 0.090189233 -0.35632247
2.2031999 0.12896509 0.11566247
1.6522123 0.096423507 -0.321704
2.1938951 0.12765206 0.19226557
1.6723081 0.09701062 -0.26531288
2.475244 0.14315552 0.30442965
1.6646957 0.096277535 -0.20474051
2.4670987 0.14225243 0.39139909
1.6589142 0.095362194 -0.14537577
2.7440536 0.15726063 0.53426522
1.940169 0.11085061 -0.10184578
3.0059013 0.17174071 0.69509876
1.9185976 0.1092822 -0.033543523
3.2750084 0.18596917 0.87894952
1.346356 0.074801959 -0.36131141
1.9207635 0.10637911 0.033578429
1.5488386 0.085508645 -0.35812208
2.2036366 0.12127313 0.11566247
1.6486181 0.090440892 -0.32094073
2.1823699 0.11972177 0.19121969
1.6667033 0.091140471 -0.26437429
2.481652 0.13526998 0.30516088
1.6590751 0.090143323 -0.20400929
2.4577177 0.13310499 0.38983473
1.6492896 0.089033484 -0.14450422
2.7504673 0.14799818 0.53541011
1.9485217 0.10450483 -0.10226447
3.0045366 0.16114195 0.69464886
1.9209644 0.10269063 -0.033578429
3.2717793 0.17433125 0.87791425
1.3485507 0.06996657 -0.36182904
1.9031672 0.098409511 0.033264287
1.5335723 0.079029299 -0.35452285
2.2100503 0.11350339 0.11597649
1.6567812 0.08479958 -0.32246721
2.1827941 0.11172266 0.19121969
1.6650534 0.084930837 -0.26406142
2.4761832 0.12587157 0.30442965
1.6633596 0.084262349 -0.20449677
2.4641075 0.12439544 0.39077336
1.6376655 0.082387663 -0.14345835
2.7392263 0.13732572 0.53312039
1.9528812 0.097562172 -0.10247381
3.0167851 0.15071276 0.6973483
1.9313139 0.096146807 -0.033752955
3.2569604 0.16157182 0.87377316
1.3623052 0.065674879 -0.3654525
1.9095073 0.091719814 0.033369001
1.5299586 0.073221974 -0.35362303
2.2144229 0.10597961 0.11618583
1.6609893 0.079202391 -0.32323048
2.1871693 0.10390908 0.19156833
1.6535145 0.078267515 -0.2621842
2.4686961 0.11642156 0.30345467
1.6616744 0.078071676 -0.20425305
2.4704468 0.11607082 0.39171195
1.6359529 0.076577827 -0.14328404
2.7396889 0.12776376 0.53312039
1.9372491 0.090002708 -0.10163644
3.0153706 0.1395638 0.69689834
1.9356328 0.089589074 -0.033822764
3.2710133 0.15082549 0.87739658
1.3625262 0.060918786 -0.3654525
1.9277803 0.086191393 0.033683144
1.5185121 0.06762813 -0.35092363
2.2087934 0.097983047 0.11587181
1.6612556 0.07340353 -0.32323048
2.1934898 0.096538097 0.19209124
1.6616589 0.073131584 -0.26343569
2.4651024 0.10805987 0.30296722
1.6520082 0.072128326 -0.20303436
2.4708369 0.10744834 0.39171195
1.6461629 0.071297444 -0.14415559
2.7342134 0.11842231 0.53197551
1.9255644 0.083062001 -0.10100841
2.9944003 0.12864566 0.69194949
1.9379315 0.082917802 -0.03385767
3.2773101 0.13965246 0.87894952
1.3627206 0.056399774 -0.3654525
1.9260714 0.07937973 0.033648241
1.518739 0.062326718 -0.35092363
2.2011397 0.089945555 0.11545313
1.6575667 0.067733437 -0.32246721
2.1977794 0.089425087 0.19243988
1.6697989 0.067650273 -0.26468715
2.4714153 0.099693775 0.30369842
1.6502663 0.066281974 -0.2027906
2.4593537 0.098348603 0.38983473
1.6523626 0.066077344 -0.14467853
2.7503035 0.10950151 0.53502846
1.9418081 0.076973304 -0.10184578
2.9987257 0.11834536 0.69284928
1.9222239 0.075524084 -0.033578429
3.2797079 0.12828787 0.87946719
1.3416741 0.05083894 -0.3597585
1.9263368 0.072655484 0.033648241
1.5345262 0.057609413 -0.35452285
2.2134156 0.082710594 0.11608116
1.6479836 0.061581612 -0.32055911
2.1781681 0.081011772 0.19069678
1.6700249 0.061820734 -0.26468715
2.4836507 0.091506563 0.30516088
1.6544552 0.060666114 -0.20327808
2.4537599 0.089546479 0.38889611
1.6326727 0.05958207 -0.14293543
2.7467451 0.099759869 0.53426522
1.9460568 0.070338421 -0.10205512
3.0088577 0.10822659 0.69509876
1.928471 0.069029726 -0.033683144
3.2704828 0.11649404 0.87687898
1.3534276 0.046553414 -0.36286432
1.9105903 0.065384127 0.033369001
1.5425085 0.052518129 -0.35632247
2.2096853 0.075233646 0.11587181
1.6521128 0.055961188 -0.32132238
2.1864028 0.073676914 0.191394
1.6544365 0.055461776 -0.2621842
2.4859388 0.08290194 0.3054046
1.6685448 0.055350889 -0.20498425
2.4540434 0.081408352 0.38889611
1.6408359 0.054145798 -0.14363267
2.7274549 0.089526534 0.53044903
1.9383059 0.063283779 -0.10163644
3.0189559 0.098039947 0.6973483
1.9266908 0.062568873 -0.033648241
3.2592659 0.10527454 0.87377316
1.3555129 0.041888744 -0.36338195
1.9227892 0.059419006 0.033578429
1.5309871 0.047043897 -0.35362303
2.2019491 0.06727539 0.11545313
1.6522981 0.050194249 -0.32132238
2.1826637 0.065924659 0.19104539
1.6565857 0.050035123 -0.26249707
2.476279 0.074359208 0.3041859
1.6647508 0.049700145 -0.20449677
2.4622107 0.073077746 0.39014763
1.6469895 0.048593722 -0.14415559
2.7336235 0.080654405 0.53159386
1.9345121 0.056739975 -0.10142709
3.0173163 0.087971993 0.69689834
1.9388906 0.056190137 -0.03385767
3.2634757 0.094007328 0.87480837
1.3807487 0.038085561 -0.37011126
1.9349786 0.053035073 0.033787858
1.5545183 0.042335685 -0.35902187
2.1981673 0.059864789 0.11524379
1.6603055 0.044926714 -0.32284883
2.1908369 0.058899898 0.19174263
1.6606996 0.0443573 -0.2631228
2.4705701 0.06555748 0.30345467
1.6510233 0.043522157 -0.2027906
2.4644141 0.064963728 0.39046046
1.6451498 0.043080021 -0.14398128
2.7456644 0.071418665 0.53388357
1.9307053 0.049883235 -0.10121775
2.9981241 0.076938331 0.69239932
1.9310701 0.049555421 -0.03371805
3.2830815 0.083677605 0.8799848
1.3770108 0.033172853 -0.36907598
1.9251484 0.046377752 0.033613335
1.5273756 0.036527772 -0.35272324
2.1943696 0.052097045 0.11503445
1.6526015 0.03894623 -0.32132238
2.1870456 0.051158324 0.191394
1.6726867 0.03912669 -0.26500002
2.4747434 0.05745706 0.30394217
1.6551278 0.038138721 -0.20327808
2.4527767 0.056089304 0.38858327
1.6532577 0.037518267 -0.14467853
2.7458861 0.062313873 0.53388357
1.9388472 0.04366076 -0.10163644
3.0022595 0.06708201 0.69329917
1.9192361 0.042548906 -0.033508621
3.2717655 0.071962811 0.87687898
1.3558675 0.028164631 -0.36338195
1.9352947 0.039863758 0.033787858
1.5430806 0.031514667 -0.35632247
2.2045224 0.044638537 0.1155578
1.6487957 0.033385839 -0.32055911
2.1792352 0.043746028 0.19069678
1.6649131 0.033130828 -0.26374856
2.478898 0.048895881 0.30442965
1.6612048 0.032476977 -0.20400929
2.4529576 0.047527689 0.38858327
1.6254903 0.031211168 -0.14223817
2.7519753 0.052840896 0.53502846
1.9449784 0.037006117 -0.10195045
3.0005269 0.056565657 0.69284928
1.9213723 0.03588609 -0.033543523
3.2642708 0.060397957 0.87480837
1.3636879 0.023327405 -0.3654525
1.9234258 0.032902349 0.033578429
1.5353873 0.02599648 -0.35452285
2.2046647 0.036943506 0.1155578
1.6528331 0.027407944 -0.32132238
2.1773887 0.035726231 0.19052245
1.661073 0.026964637 -0.2631228
2.4790537 0.040243134 0.30442965
1.663293 0.026710318 -0.20425305
2.4531085 0.038965497 0.38858327
1.6235971 0.025505228 -0.14206386
2.7344832 0.042480193 0.53159386
1.9391099 0.029784648 -0.10163644
3.0104566 0.045714974 0.69509876
1.9254849 0.029239248 -0.033613335
3.2644615 0.049003843 0.87480837
1.369556 0.018645639 -0.36700544
1.9215338 0.025825972 0.033543523
1.5315751 0.02031674 -0.35362303
2.2107763 0.028940624 0.11587181
1.660771 0.021740666 -0.32284883
2.1834769 0.028203167 0.19104539
1.6552315 0.021090303 -0.2621842
2.4712446 0.031056263 0.30345467
1.65544 0.020515835 -0.20327808
2.4571855 0.030021781 0.389209
1.6555521 0.02022746 -0.14485285
2.7346148 0.032934081 0.53159386
1.9312136 0.022922223 -0.10121775
3.0086491 0.035184085 0.69464886
1.9315777 0.022251325 -0.03371805
3.2704144 0.037103575 0.87636131
1.3638175 0.013806502 -0.3654525
1.923612 0.019137792 0.033578429
1.5238422 0.014894558 -0.35182345
2.2068696 0.021185519 0.11566247
1.6569104 0.015906017 -0.32208559
2.1975081 0.0207121 0.19226557
1.6592455 0.015348442 -0.26280993
2.471338 0.02243034 0.30345467
1.6574864 0.014754375 -0.20352182
2.4651763 0.021512715 0.39046046
1.6635818 0.014517486 -0.14555009
2.7464924 0.023489609 0.53388357
1.933279 0.016197108 -0.10132242
3.0009592 0.024616983 0.69284928
1.9296439 0.015493076 -0.033683144
3.282115 0.025779203 0.87946719
1.3735164 0.0091095045 -0.36804068
1.9256667 0.012435418 0.033613335
1.5238849 0.0095755868 -0.35182345
2.1989412 0.013432588 0.11524379
1.6451766 0.010049827 -0.31979591
2.1915898 0.013005187 0.19174263
1.6652151 0.009591775 -0.26374856
2.4753716 0.013825141 0.30394217
1.6535578 0.0089466562 -0.20303436
2.4652364 0.012909207 0.39046046
1.6456913 0.00861766 -0.14398128
2.7485209 0.013911624 0.53426522
1.935321 0.0094578518 -0.10142709
3.0010266 0.014143595 0.69284928
1.925687 0.0087386053 -0.033613335
3.2725255 0.014279305 0.87687898
1.358085 0.0042673643 -0.36389959
1.9256984 0.0057139159 0.033613335
1.5278064 0.0042666555 -0.35272324
2.210958 0.0057875523 0.11587181
1.6530547 0.0043271468 -0.32132238
2.1796677 0.0053262808 0.19069678
1.6652384 0.0037785878 -0.26374856
2.4853303 0.0052045225 0.30516088
1.6615192 0.0031902012 -0.20400929
2.457365 0.0042893989 0.389209
1.6277797 0.0028413346 -0.14241248
2.7446265 0.0043105129 0.53350198
1.9473257 0.0027194056 -0.10205512
3.0108013 0.0036790769 0.69509876
1.9257058 0.0020161367 -0.033613335
3.2667601 0.0028516012 0.87532604
1.3754784 -0.00024006626 -0.36855832
1.9357052 -0.00067568861 0.033787858
1.5511971 -0.00081220496 -0.35812208
2.2049739 -0.0011545217 0.1155578
1.65306 -0.0011540537 -0.32132238
2.1796734 -0.0019021241 0.19069678
1.655365 -0.0017334946 -0.2621842
2.4793785 -0.0030291337 0.30442965
1.6635062 -0.0020323573 -0.20425305
2.4652679 -0.0034421654 0.39046046
1.6437193 -0.0025819503 -0.14380698
2.7328458 -0.0047697201 0.53121227
1.9413323 -0.003727095 -0.10174111
3.0166433 -0.0063180518 0.6964485
1.9257026 -0.0040331879 -0.033613335
3.2628894 -0.0074032736 0.87429082
1.3928566 -0.0048620063 -0.37321708
1.9536895 -0.007160678 0.034102004
1.5511858 -0.0059561552 -0.35812208
2.2069535 -0.0088593252 0.11566247
1.6530459 -0.0069243023 -0.32132238
2.1836383 -0.0095279794 0.19104539
1.6553501 -0.0072228727 -0.2621842
2.4674442 -0.011196984 0.30296722
1.663489 -0.007839065 -0.20425305
2.4711668 -0.012076496 0.39139909
1.6496775 -0.0083498396 -0.14432991
2.7367415 -0.013852011 0.53197551
1.9313232 -0.010112477 -0.10121775
3.0127084 -0.016300481 0.69554865
1.9336754 -0.010799794 -0.033752955
3.2744343 -0.018859595 0.87739658
1.3870357 -0.0096834926 -0.37166417
1.9996442 -0.014309399 0.034904812
1.5316687 -0.011227919 -0.35362303
2.1989205 -0.016503021 0.11524379
1.6608665 -0.012464897 -0.32284883
2.1915638 -0.016830333 0.19174263
1.6592654 -0.013032107 -0.26280993
2.4654055 -0.019793965 0.3027235
1.6594814 -0.013613109 -0.20376556
2.4632084 -0.02063621 0.39014763
1.6576098 -0.013887084 -0.14502715
2.7445295 -0.023472097 0.53350198
1.9312761 -0.01685399 -0.10121775
2.9970438 -0.026677929 0.69194949
1.9256276 -0.01747692 -0.033613335
3.2801437 -0.030342996 0.87894952
1.3638126 -0.014282332 -0.3654525
1.9735876 -0.021012612 0.034451049
1.5472091 -0.016743068 -0.35722226
2.2008464 -0.024200546 0.11534845
1.6451079 -0.018089633 -0.31979591
2.1835227 -0.024391199 0.19104539
1.669086 -0.018935991 -0.26437429
2.475246 -0.028514044 0.30394217
1.6514839 -0.019312846 -0.2027906
2.4571958 -0.029163957 0.389209
1.64759 -0.019554913 -0.14415559
2.7483568 -0.033099435 0.53426522
1.9371967 -0.023668502 -0.10153177
2.9969325 -0.037139401 0.69194949
1.9175566 -0.024097994 -0.033473715
3.2742229 -0.041718815 0.87739658
1.3579594 -0.018961919 -0.36389959
1.9695032 -0.027845049 0.034381241
1.5510385 -0.022199512 -0.35812208
2.2087369 -0.031998515 0.11576715
1.6450347 -0.023832021 -0.31979591
2.17944 -0.031954546 0.19069678
1.6690097 -0.024762074 -0.26437429
2.4751313 -0.037154093 0.30394217
1.6593459 -0.025198048 -0.20376556
2.4610291 -0.037801668 0.38983473
1.6335667 -0.025091758 -0.14293543
2.7482245 -0.042692788 0.53426522
1.9410964 -0.030493176 -0.10174111
3.0084753 -0.047786117 0.69464886
1.9234592 -0.030887693 -0.033578429
3.2624679 -0.052959602 0.87429082
1.3752689 -0.024005407 -0.36855832
1.9713935 -0.03475498 0.034416147
1.5509515 -0.027613509 -0.35812208
2.2066145 -0.039672345 0.11566247
1.6547561 -0.029750574 -0.321704
2.1832993 -0.039634343 0.19104539
1.6531126 -0.030298261 -0.26187131
2.4769714 -0.045830406 0.3041859
1.6671869 -0.03113837 -0.20474051
2.4608822 -0.046392031 0.38983473
1.6354613 -0.030831371 -0.14310972
2.7343183 -0.052024193 0.53159386
1.9389813 -0.037230346 -0.10163644
3.0063422 -0.058249611 0.69419897
1.925339 -0.037640721 -0.033613335
3.2699888 -0.064499803 0.87636131
1.3577938 -0.028441723 -0.36389959
1.9512676 -0.041213937 0.034067098
1.5352592 -0.032695245 -0.35452285
2.2044661 -0.047331758 0.1155578
1.6644561 -0.035737287 -0.32361206
2.1811557 -0.047212124 0.19087107
1.6549718 -0.036111616 -0.2621842
2.4807653 -0.054563675 0.30467337
1.6730219 -0.037089743 -0.20547174
2.4646552 -0.055070084 0.39046046
1.649287 -0.036851551 -0.14432991
2.7341201 -0.061568428 0.53159386
1.9288558 -0.043771856 -0.10111307
3.011965 -0.068877012 0.69554865
1.929194 -0.044453301 -0.033683144
3.275538 -0.076048322 0.87791425
1.3750678 -0.033605933 -0.36855832
1.9551101 -0.048123293 0.034136906
1.5370839 -0.038102388 -0.35497275
2.1982975 -0.054876961 0.11524379
1.6584333 -0.04140012 -0.32246721
2.1849611 -0.054925624 0.19121969
1.6568104 -0.041938309 -0.26249707
2.4726222 -0.06302052 0.30369842
1.6550223 -0.042471129 -0.20327808
2.4683971 -0.06377504 0.39108619
1.6451647 -0.042505495 -0.14398128
2.741739 -0.071316116 0.53312039
1.9306878 -0.050556842 -0.10121775
2.9961219 -0.078979492 0.69194949
1.9310262 -0.051240221 -0.03371805
3.2752526 -0.087481618 0.87791425
1.3691489 -0.038243789 -0.36700544
1.9429368 -0.054610513 0.033927478
1.5291497 -0.043247212 -0.35317314
2.2060781 -0.062777363 0.11566247
1.6523914 -0.047021348 -0.32132238
2.1907308 -0.062723294 0.19174263
1.660603 -0.047835156 -0.2631228
2.4704027 -0.071593687 0.30345467
1.6568481 -0.048305824 -0.20352182
2.4563124 -0.072043493 0.389209
1.6430148 -0.048189517 -0.14380698
2.7512853 -0.081175633 0.53502846
1.9344923 -0.05741439 -0.10142709
2.9899843 -0.08926297 0.69059974
1.9188427 -0.057620317 -0.033508621
3.2652724 -0.098622248 0.87532604
1.3651451 -0.042901412 -0.36597013
1.9527278 -0.061708096 0.034102004
1.5406759 -0.048956022 -0.35587254
2.2118344 -0.070668973 0.11597649
1.6463304 -0.052600894 -0.32017753
2.1785502 -0.069986142 0.19069678
1.6584517 -0.053567681 -0.26280993
2.4780741 -0.080474295 0.30442965
1.6606374 -0.054218568 -0.20400929
2.4639432 -0.080876403 0.39046046
1.6328801 -0.05359761 -0.14293543
2.739212 -0.090390414 0.53273875
1.9382725 -0.064299121 -0.10163644
2.9993927 -0.10002417 0.69284928
1.9206285 -0.064384982 -0.033543523
3.2649083 -0.11001956 0.87532604
1.3707792 -0.047868662 -0.36752307
1.9305173 -0.067752503 0.03371805
1.5443907 -0.054471076 -0.35677236
2.2115879 -0.078003302 0.11597649
1.6520228 -0.058555972 -0.32132238
2.1763015 -0.077519357 0.19052245
1.6543063 -0.05921511 -0.2621842
2.477778 -0.089123897 0.30442965
1.6584543 -0.05994324 -0.20376556
2.4656355 -0.089118034 0.39077336
1.632683 -0.059297096 -0.14293543
2.7329938 -0.099736698 0.53159386
1.9460198 -0.071357302 -0.10205512
3.0146046 -0.11106739 0.6964485
1.9244013 -0.070900917 -0.033613335
3.2664557 -0.12091724 0.87584364
1.3725342 -0.052727446 -0.36804068
1.9202909 -0.073770136 0.033543523
1.5325179 -0.059141275 -0.35407296
2.2172894 -0.0859548 0.11629051
1.6635789 -0.0647806 -0.32361206
2.1839812 -0.085427098 0.19121969
1.6580486 -0.064855084 -0.26280993
2.4715183 -0.097106218 0.30369842
1.6701478 -0.065912232 -0.205228
2.4751787 -0.098115377 0.39233768
1.6384385 -0.065233648 -0.14345835
2.728725 -0.10864289 0.53083062
1.9258158 -0.077012099 -0.10100841
3.0161667 -0.12114177 0.69689834
1.9321342 -0.077940285 -0.033752955
3.2679441 -0.13239677 0.87636131
1.3723518 -0.057278641 -0.36804068
1.9220197 -0.080556482 0.033578429
1.5361961 -0.064654276 -0.35497275
2.1930301 -0.092682056 0.11503445
1.6555089 -0.069965281 -0.32208559
2.1896577 -0.092922382 0.19174263
1.6578121 -0.07064236 -0.26280993
2.4711642 -0.10573283 0.30369842
1.644125 -0.070634075 -0.20205939
2.4689004 -0.10649937 0.39139909
1.6521469 -0.071267605 -0.14467853
2.7361748 -0.11850706 0.53235716
1.9295261 -0.083907522 -0.10121775
2.9884694 -0.13047938 0.69059974
1.9318504 -0.084684223 -0.033752955
3.2751818 -0.14414299 0.87843186
1.3702136 -0.061981391 -0.36752307
1.953689 -0.088716492 0.034136906
1.5476413 -0.070548654 -0.35767215
2.1946883 -0.1004279 0.11513911
1.6474098 -0.075384691 -0.32055911
2.1913104 -0.10065657 0.19191694
1.6634753 -0.076701723 -0.26374856
2.4707799 -0.11435816 0.30369842
1.6518003 -0.076741219 -0.20303436
2.4586475 -0.11465669 0.38983473
1.6479077 -0.076848611 -0.14432991
2.7435889 -0.12842456 0.53388357
1.9312165 -0.090736054 -0.10132242
2.9918888 -0.14109389 0.69149953
1.9175607 -0.090765297 -0.033508621
3.2804477 -0.15584965 0.8799848
1.3391159 -0.065259412 -0.35924083
1.9473754 -0.095242545 0.034032192
1.5512785 -0.076141573 -0.35857198
2.1983142 -0.1082847 0.11534845
1.6471366 -0.081134759 -0.32055911
2.1750259 -0.10751811 0.19052245
1.6612245 -0.08241 -0.26343569
2.4782963 -0.12337689 0.30467337
1.6574701 -0.082803749 -0.20376556
2.4582324 -0.12323827 0.38983473
1.6476295 -0.082600415 -0.14432991
2.7411633 -0.13790205 0.53350198
1.9388669 -0.097879492 -0.10174111
3.0011091 -0.15202963 0.69374907
1.9152352 -0.097356752 -0.033473715
3.2663784 -0.16661072 0.87636131
1.365889 -0.071344167 -0.36648777
1.9170767 -0.10046974 0.033508621
1.5471112 -0.081351422 -0.35767215
2.2019119 -0.11616804 0.1155578
1.6507646 -0.087090716 -0.32132238
2.1686685 -0.11479376 0.18999951
1.6550088 -0.087893963 -0.26249707
2.4798329 -0.13213263 0.30491713
1.6730292 -0.089436643 -0.20571546
2.4518695 -0.13150097 0.38889611
1.6413623 -0.088031098 -0.14380698
2.7308626 -0.14694221 0.53159386
1.942502 -0.10486212 -0.10195045
3.0161273 -0.1633476 0.6973483
1.926864 -0.10469251 -0.033683144
3.2561321 -0.17748576 0.87377316
1.3598452 -0.075789064 -0.36493486
1.9167143 -0.10716096 0.033508621
1.5468178 -0.086751357 -0.35767215
2.2114635 -0.12441438 0.11608116
1.658291 -0.093293533 -0.32284883
2.1881468 -0.12348573 0.19174263
1.6507474 -0.093447194 -0.26187131
2.4654834 -0.14000028 0.30321094
1.6727067 -0.095276058 -0.20571546
2.4790058 -0.1416363 0.3932763
1.6370667 -0.093532681 -0.14345835
2.7322934 -0.15658614 0.53197551
1.9281665 -0.11083973 -0.10121775
3.0019202 -0.17308962 0.69419897
1.9224943 -0.11118698 -0.033613335
3.2689929 -0.18963386 0.87739658
1.3942848 -0.082591571 -0.37425235
1.9243133 -0.11432528 0.033648241
1.5465055 -0.092150219 -0.35767215
2.2030406 -0.13165647 0.11566247
1.659915 -0.099198602 -0.32323048
2.19168 -0.13136142 0.19209124
1.6563267 -0.099564396 -0.26280993
2.4669609 -0.148725 0.30345467
1.6664195 -0.1007549 -0.20498425
2.4784963 -0.15028879 0.3932763
1.6446853 -0.09972892 -0.14415559
2.7317302 -0.16612266 0.53197551
1.9277679 -0.11756962 -0.10121775
2.9915721 -0.1829724 0.69194949
1.9280822 -0.11826434 -0.03371805
3.2818086 -0.20187388 0.88102001
1.3708513 -0.08600644 -0.36804068
1.9199111 -0.12079056 0.033578429
1.5345051 -0.096811764 -0.35497275
2.2025919 -0.1389613 0.11566247
1.6478026 -0.10424843 -0.32094073
2.1951849 -0.13926332 0.19243988
1.6638547 -0.1058471 -0.26406142
2.4703889 -0.15758817 0.30394217
1.6502094 -0.10555742 -0.20303436
2.4681277 -0.15787645 0.39171195
1.650292 -0.10585191 -0.14467853
2.744848 -0.17653921 0.53464681
1.9273458 -0.12429807 -0.10121775
2.9986939 -0.19391683 0.69374907
1.9196974 -0.12414125 -0.033578429
3.2753377 -0.21238063 0.87946719
1.3512664 -0.089514129 -0.36286432
1.9115187 -0.12662783 0.033438813
1.5497314 -0.10293305 -0.35857198
2.196115 -0.14625078 0.11534845
1.6474288 -0.10999969 -0.32094073
2.1867337 -0.14639276 0.19174263
1.6713784 -0.11189185 -0.26531288
2.4777753 -0.16631116 0.30491713
1.661734 -0.11182887 -0.20449677
2.4616487 -0.16609192 0.39077336
1.6340097 -0.11053608 -0.14328404
2.7442474 -0.18564048 0.53464681
1.9368863 -0.13136443 -0.10174111
2.9960904 -0.20372759 0.69329917
1.9192524 -0.13084151 -0.033578429
3.2668669 -0.22328547 0.87739658
1.3875788 -0.096542247 -0.37269944
1.9030857 -0.13274294 0.033299193
1.5629705 -0.10929354 -0.36172128
2.2075725 -0.15436849 0.11597649
1.6529301 -0.11587404 -0.32208559
2.1762989 -0.15294506 0.19087107
1.6512727 -0.1163371 -0.2621842
2.4732194 -0.17467952 0.30442965
1.6593534 -0.1174885 -0.20425305
2.4610844 -0.17425409 0.39077336
1.6415838 -0.11651831 -0.14398128
2.731833 -0.19438253 0.53235716
1.9344238 -0.13798253 -0.10163644
3.0070236 -0.21501859 0.69599855
1.9287809 -0.13791835 -0.033752955
3.2641816 -0.23397943 0.87687898
1.3660395 -0.099836268 -0.36700544
1.9106125 -0.13963608 0.033438813
1.5373336 -0.11262497 -0.35587254
2.20702 -0.16207342 0.11597649
1.6544737 -0.12178727 -0.32246721
2.1876736 -0.16142049 0.19191694
1.6508778 -0.12181228 -0.2621842
2.4666874 -0.18244079 0.30369842
1.6648936 -0.12343077 -0.20498425
2.4781907 -0.18416137 0.39358914
1.6411672 -0.12224779 -0.14398128
2.7390049 -0.20402388 0.53388357
1.9299721 -0.14409912 -0.10142709
3.0121238 -0.22542536 0.6973483
1.9362642 -0.14524859 -0.033892576
3.263345 -0.24537213 0.87687898
1.365701 -0.10436568 -0.36700544
1.9101135 -0.14630455 0.033438813
1.5408171 -0.1182889 -0.35677236
2.1965134 -0.16862687 0.11545313
1.6540606 -0.12727304 -0.32246721
2.1910992 -0.16898058 0.19226557
1.6543816 -0.12787865 -0.26280993
2.4739523 -0.19166332 0.30467337
1.6466403 -0.12785849 -0.2027906
2.46575 -0.1914608 0.39171195
1.6486982 -0.12830777 -0.14467853
2.7441478 -0.21404158 0.53502846
1.925475 -0.15052378 -0.10121775
2.9938335 -0.23456834 0.69329917
1.9238102 -0.15073147 -0.033683144
3.275995 -0.25725108 0.88050246
1.3595512 -0.10867044 -0.3654525
1.9175912 -0.15327521 0.033578429
1.5365313 -0.12308657 -0.35587254
2.1939206 -0.17613328 0.11534845
1.6457787 -0.1324162 -0.32094073
2.1825523 -0.17598741 0.19156833
1.6637933 -0.13415791 -0.26437429
2.4733031 -0.19986619 0.30467337
1.6363143 -0.13251707 -0.20157191
2.4571908 -0.1994275 0.39046046
1.6482402 -0.13406204 -0.14467853
2.7453797 -0.22329949 0.53541011
1.9309372 -0.15739484 -0.10153177
2.9949813 -0.2446536 0.69374907
1.9153004 -0.15679328 -0.033543523
3.2750769 -0.26868489 0.88050246
1.3610688 -0.11381371 -0.36597013
1.9229665 -0.16113803 0.033683144
1.5593503 -0.13094229 -0.36127138
2.1972411 -0.18450746 0.1155578
1.6452821 -0.13844739 -0.32094073
2.177922 -0.18365082 0.19121969
1.6632659 -0.1405454 -0.26437429
2.4824076 -0.21019895 0.30589208
1.6555731 -0.14047742 -0.20400929
2.4662845 -0.20926729 0.39202482
1.6259004 -0.13824546 -0.14276111
2.7405896 -0.23350595 0.53464681
1.9382786 -0.16548757 -0.10195045
3.0017867 -0.25681615 0.69554865
1.9186976 -0.16415307 -0.033613335
3.2548223 -0.2790367 0.87532604
1.352965 -0.11789323 -0.36389959
1.9244138 -0.16768752 0.03371805
1.5511421 -0.13543454 -0.35947177
2.200563 -0.19252428 0.11576715
1.6506561 -0.144704 -0.32208559
2.1772676 -0.19125207 0.19121969
1.6549195 -0.1453688 -0.2631228
2.477742 -0.21808164 0.3054046
1.6590531 -0.14631552 -0.20449677
2.4655392 -0.21787493 0.39202482
1.6412848 -0.14532588 -0.14415559
2.7339337 -0.24207336 0.53350198
1.9357299 -0.17173772 -0.10184578
3.0067418 -0.26728666 0.69689834
1.9141293 -0.17049474 -0.033543523
3.2615252 -0.29108337 0.87739658
1.3525666 -0.12237918 -0.36389959
1.9078845 -0.1729596 0.033438813
1.5545415 -0.1412008 -0.36037159
2.1978881 -0.20002347 0.11566247
1.6618984 -0.15124458 -0.3243753
2.1885264 -0.19955665 0.19226557
1.6465333 -0.15042578 -0.26187131
2.4651046 -0.22564359 0.30394217
1.660509 -0.1522871 -0.20474051
2.4745991 -0.22738373 0.39358914
1.6566662 -0.15222624 -0.14555009
2.733072 -0.25161508 0.53350198
1.9331297 -0.17831017 -0.10174111
3.0174332 -0.27885649 0.69959778
1.9214871 -0.17791273 -0.033683144
3.2681835 -0.30318022 0.87946719
1.3367443 -0.12565339 -0.3597585
1.9172236 -0.18055579 0.033613335
1.5307575 -0.14442964 -0.35497275
2.1872346 -0.20675455 0.11513911
1.6574512 -0.15667526 -0.32361206
2.1878164 -0.20719481 0.19226557
1.6597641 -0.15747845 -0.26406142
2.4643018 -0.23424703 0.30394217
1.6540388 -0.15751784 -0.20400929
2.4816563 -0.23677076 0.39484066
1.6561247 -0.15800814 -0.14555009
2.73804 -0.26171413 0.53464681
1.9225547 -0.18410502 -0.10121775
3.0048022 -0.28827098 0.69689834
1.9248354 -0.18500152 -0.033752955
3.2786429 -0.3156974 0.88257295
1.390134 -0.13556899 -0.37425235
1.9305133 -0.18860814 0.03385767
1.5573968 -0.15242966 -0.36127138
2.1905127 -0.21439564 0.11534845
1.6451709 -0.16131042 -0.32132238
2.1910455 -0.21521997 0.19261418
1.6592042 -0.16327116 -0.26406142
2.4713714 -0.24362656 0.30491713
1.6495279 -0.16290036 -0.20352182
2.4690623 -0.24383409 0.39296341
1.6397014 -0.16221891 -0.14415559
2.7410171 -0.27165735 0.53541011
1.9298503 -0.1916042 -0.10163644
2.994082 -0.2977936 0.69464886
1.9242114 -0.19138348 -0.033752955
3.2660444 -0.32541886 0.87946719
1.3416005 -0.13556515 -0.36131141
1.9139607 -0.19340059 0.033578429
1.5685155 -0.15877084 -0.36397079
2.1976991 -0.22284663 0.11576715
1.6406913 -0.16665533 -0.32055911
2.1744237 -0.22125334 0.19121969
1.6606188 -0.16897234 -0.26437429
2.4784493 -0.25262579 0.30589208
1.6549033 -0.16897443 -0.20425305
2.4662313 -0.25225025 0.39265057
1.6272331 -0.1667231 -0.14310972
2.7381482 -0.28054526 0.53502846
1.9371516 -0.19881839 -0.10205512
3.0008323 -0.3085179 0.6964485
1.9255209 -0.19830394 -0.033787858
3.261045 -0.33642098 0.87843186
1.3430653 -0.14021392 -0.36182904
1.9192404 -0.20070432 0.033683144
1.540818 -0.16140273 -0.35767215
2.2028668 -0.23114192 0.11608116
1.6518449 -0.17332441 -0.32284883
2.1816041 -0.22929582 0.19191694
1.6482317 -0.17352699 -0.26249707
2.4815006 -0.26169205 0.30637956
