# .PCD v0.7 - Point Cloud Data file format
VERSION 0.7
FIELDS x y z intensity
SIZE 4 4 4 4
TYPE F F F F
COUNT 1 1 1 1
WIDTH 1319
HEIGHT 1
VIEWPOINT 0 0 0 1 0 0 0
POINTS 1319
DATA ascii
-1.5861827 -0.13737823 -0.36757001 19
-3.4582899 -0.29952016 0.1819198 46
-1.8503398 -0.15993135 -0.36101064 13
-3.3785012 -0.29142252 0.29667813 45
-2.2633133 -0.19483021 -0.35979933 11
-2.685863 -0.23073189 0.33099717 97
-2.8718197 -0.2462025 -0.3539086 13
-2.8026559 -0.24027304 0.44552541 97
-3.5434706 -0.30315965 -0.31114599 7
-2.7855401 -0.23782563 0.54342401 97
-3.637809 -0.30995259 -0.19134027 3
-2.7650292 -0.2351023 0.64066058 8
-3.544668 -0.3013927 -0.062095661 4
-39.680599 -3.3669498 10.670591 28
-1.3957416 -0.11646795 -0.37528762 13
-3.4036505 -0.28401834 0.059617419 18
-1.5905137 -0.13244125 -0.36846983 19
-3.4533434 -0.28695044 0.18160579 38
-1.8391477 -0.1524985 -0.35872093 14
-3.379498 -0.27962747 0.29667813 45
-2.2659154 -0.18748707 -0.36011216 11
-2.6866136 -0.22182389 0.33099717 93
-2.8805342 -0.23732977 -0.35488355 13
-2.7956028 -0.22984032 0.44427395 95
-3.9237792 -0.32190385 -0.34443948 9
-2.7941401 -0.22922912 0.54495054 94
-6.4216757 -0.52570271 -0.33767161 8
-2.7696781 -0.22624908 0.64156044 7
-3.5177953 -0.28674313 -0.061606996 2
-39.788387 -3.2362573 10.696474 29
-1.3961201 -0.11183882 -0.37528762 12
-3.3826945 -0.27038294 0.059233464 18
-1.5948514 -0.12719795 -0.36936963 19
-3.4323754 -0.27375033 0.1804544 28
-1.8435572 -0.14671023 -0.35948417 13
-3.3526008 -0.26621109 0.29423779 47
-2.2724638 -0.18004385 -0.36105078 10
-2.7012236 -0.21354012 0.33270332 87
-2.8892608 -0.22789766 -0.3558585 13
-2.7924111 -0.2202584 0.44364822 95
-3.9407156 -0.31014082 -0.34583399 11
-2.7870944 -0.21886018 0.54342401 86
-6.4354191 -0.50421953 -0.33829966 8
-2.7782221 -0.21718714 0.64336002 7
-10.767503 -0.84174806 -0.18852089 4
-1.404207 -0.10755488 -0.37735817 13
-3.3696156 -0.25809488 0.058989134 13
-1.5894352 -0.12146338 -0.36801991 21
-3.423353 -0.26100898 0.17993104 33
-1.8479735 -0.14057191 -0.3602474 13
-3.3594699 -0.25495812 0.29476073 48
-2.2553208 -0.17116164 -0.35823497 10
-2.688061 -0.20353214 0.33099717 73
-2.8939595 -0.21861422 -0.35634598 13
-2.8010421 -0.21110278 0.44489968 97
-3.9358134 -0.2959359 -0.34531105 11
-2.779974 -0.20902772 0.54189759 86
-6.4450216 -0.48347351 -0.33871832 8
-2.7867005 -0.20855464 0.6451596 7
-10.780347 -0.8049041 -0.18869542 4
-24.027487 -1.7897722 6.4559822 12
-1.4045559 -0.10289772 -0.37735817 12
-3.3585298 -0.24545653 0.058779709 12
-1.5781879 -0.11506421 -0.3653205 22
-3.3963547 -0.24702917 0.17846562 37
-1.8562617 -0.13501263 -0.36177388 13
-3.3583097 -0.2436728 0.29458639 49
-2.2657559 -0.16400158 -0.35979933 10
-2.6788554 -0.1934329 0.32977846 43
-2.8828254 -0.20765528 -0.35488355 13
-2.8017619 -0.20132461 0.44489968 100
-3.9347861 -0.2827397 -0.34513673 11
-2.7846031 -0.1996032 0.54266083 92
-6.4267488 -0.45954695 -0.33767161 8
-2.7757487 -0.19799468 0.64246023 6
-10.755166 -0.76528144 -0.18820675 4
-23.998903 -1.7034214 6.4466648 25
-1.4087607 -0.098263077 -0.37839344 12
-3.3533816 -0.23331589 0.058674991 11
-1.5902444 -0.11036408 -0.36801991 21
-3.3673091 -0.23310313 0.17689554 24
-1.8567218 -0.1285322 -0.36177388 13
-3.3651028 -0.23236027 0.29510933 43
-2.2722263 -0.15649875 -0.36073789 9
-2.6894164 -0.18476097 0.33099717 36
-2.8835325 -0.19759101 -0.35488355 13
-2.7945645 -0.19100456 0.44364822 100
-3.9516509 -0.27008981 -0.34653121 12
-2.7970352 -0.19068301 0.54495054 94
-6.4283137 -0.43711045 -0.33767161 8
-2.7647572 -0.18751302 0.63976079 7
-10.747796 -0.72705919 -0.18803222 6
-24.004702 -1.6196386 6.4466648 25
-1.3975294 -0.092579111 -0.37528762 12
-3.3402078 -0.22068523 0.058430657 11
-1.5983981 -0.10532489 -0.36981952 18
-3.3621233 -0.22095537 0.17658153 13
-1.853241 -0.12179314 -0.36101064 13
-3.3122144 -0.21709405 0.29040295 54
-2.2786722 -0.14895274 -0.36167651 10
-2.6959875 -0.17576003 0.33172837 42
-2.8881667 -0.1877819 -0.35537103 13
-2.7873294 -0.18073718 0.4423967 95
-3.9506264 -0.25547487 -0.34635693 10
-2.7898471 -0.18041085 0.54342401 92
-6.445745 -0.4156985 -0.33850899 8
-2.7692842 -0.17811114 0.64066058 6
-10.744282 -0.68915105 -0.18792751 8
-23.990932 -1.5346086 6.4414883 25
-1.3747224 -0.086008385 -0.36907598 13
-3.3130169 -0.2072762 0.057941992 11
-1.6007009 -0.099866487 -0.37026942 18
-3.3489203 -0.20834902 0.17584883 11
-1.857594 -0.1152425 -0.36177388 14
-3.2931018 -0.20372325 0.28865981 32
-2.273288 -0.14023507 -0.36073789 11
-2.7005475 -0.16659193 0.33221585 50
-2.8927672 -0.17794284 -0.3558585 13
-2.7958298 -0.17149082 0.44364822 100
-3.9395616 -0.24095409 -0.34531105 5
-2.7904897 -0.17018496 0.54342401 97
-6.4791226 -0.39401206 -0.34018376 8
-2.7660282 -0.16772407 0.63976079 6
-10.738638 -0.65116042 -0.18778789 4
-23.996141 -1.4508545 6.4414883 25
-1.398156 -0.082576253 -0.37528762 12
-3.2977846 -0.19419234 0.057662752 12
-1.5971655 -0.093770117 -0.36936963 18
-3.3337109 -0.19514027 0.17501146 11
-1.8619046 -0.10898743 -0.36253712 14
-3.3017488 -0.19269034 0.28935707 6
-2.2639034 -0.13172516 -0.35917357 11
-2.6971762 -0.15646349 0.33172837 74
-2.9013271 -0.16779755 -0.35683349 15
-2.7964394 -0.16124174 0.44364822 100
-3.6042233 -0.20781827 -0.3158524 1
-2.7793064 -0.15976785 0.54113436 92
-6.4964104 -0.37230572 -0.34102112 2
-2.7724335 -0.15840122 0.64111048 6
-3.3460662 -0.19058949 -0.058500469 2
-24.005157 -1.3631133 6.442524 25
-1.4003648 -0.077802405 -0.37580526 12
-3.2864623 -0.18201537 0.057453319 15
-1.5858084 -0.087550193 -0.36667022 18
-3.3164234 -0.1825144 0.1740694 11
-1.8681545 -0.10281109 -0.36368197 14
-3.2944438 -0.1807273 0.28865981 7
-2.2682946 -0.12403808 -0.35979933 11
-2.6818488 -0.14618319 0.32977846 100
-2.8860378 -0.15680735 -0.35488355 15
-2.8029029 -0.15179977 0.44458681 100
-2.7837682 -0.1502762 0.54189759 92
-3.3944244 -0.18264717 -0.17815161 3
-2.7690778 -0.14851384 0.64021069 5
-3.3407207 -0.17858805 -0.058395755 6
-24.005911 -1.2791051 6.4414883 25
-1.4122033 -0.073516302 -0.37891111 13
-3.2790897 -0.17012861 0.057313703 18
-1.5880505 -0.082114741 -0.36712012 18
-3.2871213 -0.16939412 0.17249933 11
-1.8567381 -0.095682666 -0.36139226 15
-3.2970443 -0.16932933 0.28883412 9
-2.2805502 -0.11672526 -0.36167651 11
-2.6882904 -0.13712357 0.33050969 79
-2.8845849 -0.14663137 -0.3546398 15
-2.7994697 -0.14181557 0.44396105 100
-2.7921185 -0.14095399 0.54342401 100
-3.4090047 -0.17149965 -0.17888431 11
-2.7656865 -0.13865249 0.6393109 5
-3.3433206 -0.16702534 -0.058430657 11
-24.025665 -1.1960688 6.4456296 25
-1.408592 -0.068398908 -0.3778758 14
-3.2796633 -0.15868133 0.057313703 19
-1.6019527 -0.077227719 -0.37026942 16
-3.2757227 -0.15734462 0.1718713 11
-1.8570608 -0.089201242 -0.36139226 16
-3.2976151 -0.15781938 0.28883412 11
-2.2809439 -0.10876388 -0.36167651 11
-2.7026324 -0.12839818 0.33221585 90
-2.8910279 -0.13684358 -0.35537103 13
-2.7920551 -0.13166979 0.44270959 100
-2.7965159 -0.13139102 0.54418731 100
-3.4115775 -0.15969306 -0.17898898 15
-2.775887 -0.12945075 0.64156044 5
-3.3239079 -0.15442581 -0.058081608 17
-24.021975 -1.1118439 6.4435592 25
-1.3760141 -0.06200321 -0.36907598 13
-3.2602205 -0.14633544 0.056964654 21
-1.6022125 -0.071634963 -0.37026942 18
-3.2662756 -0.14546487 0.17134793 11
-1.857361 -0.082718298 -0.36139226 16
-3.2842128 -0.14568941 0.28761396 11
-2.2753892 -0.10053904 -0.36073789 11
-2.7050474 -0.1190513 0.3324596 117
-2.8994207 -0.12709884 -0.35634598 13
-2.7964449 -0.12209515 0.44333532 102
-3.4833632 -0.15208659 -0.3050451 1
-2.7851892 -0.12111738 0.54189759 100
-3.4081235 -0.14761053 -0.17877965 23
-2.7802157 -0.1199282 0.64246023 5
-3.3144374 -0.14239383 -0.057907082 14
-24.010269 -1.0273179 6.4394183 25
-1.4032447 -0.058322743 -0.37632293 12
-3.2507217 -0.13454148 0.056790132 23
-1.6063471 -0.066202596 -0.37116924 16
-3.2747457 -0.13439004 0.17176662 13
-1.8654847 -0.076556347 -0.36291873 15
-3.2906737 -0.13446923 0.2881369 12
-2.2678313 -0.092275083 -0.35948643 11
-2.6935458 -0.10912599 0.33099717 115
-2.8958797 -0.1168164 -0.3558585 13
-2.8008013 -0.11249213 0.44396105 100
-3.3763704 -0.13560943 -0.29563227 1
-2.7816715 -0.11123754 0.54113436 100
-3.3986394 -0.13531487 -0.17825629 21
-2.7708812 -0.10983735 0.64021069 5
-3.3149145 -0.13082331 -0.057907082 17
-24.009846 -0.94334769 6.4383831 25
-1.4111614 -0.053718384 -0.37839344 12
-3.255168 -0.12334409 0.05685994 23
-1.5948843 -0.060154263 -0.36846983 18
-3.2532406 -0.12213471 0.17061524 13
-1.8775119 -0.070486441 -0.36520842 14
-3.299087 -0.12327853 0.28883412 12
-2.283932 -0.084945597 -0.36198941 11
-2.6899431 -0.099576145 0.33050969 83
-2.8962698 -0.10670779 -0.3558585 13
-2.8031511 -0.10278714 0.44427395 110
-3.337002 -0.12236261 -0.29214606 3
-2.7820427 -0.10152694 0.54113436 100
-3.3931034 -0.12323382 -0.17794226 15
-2.7848802 -0.10065716 0.64336002 5
-3.3253427 -0.11960983 -0.058081608 18
-24.012993 -0.85953701 6.4383831 25
-1.407479 -0.048658654 -0.37735817 12
-3.2515819 -0.11184312 0.056790132 23
-1.5989797 -0.054720346 -0.36936963 16
-3.2396741 -0.11030143 0.16988252 12
-1.8679358 -0.063597746 -0.36330032 13
-3.3094535 -0.11209896 0.28970569 12
-2.2822402 -0.076906078 -0.36167651 10
-2.702178 -0.090584867 0.33197212 84
-2.8966246 -0.096597187 -0.3558585 13
-2.79757 -0.092805117 0.44333532 106
-3.3632958 -0.11157221 -0.29441211 5
-2.7902291 -0.092074104 0.54266083 100
-3.4034936 -0.11171644 -0.17846562 11
-2.761842 -0.090172321 0.63796121 4
-3.3117495 -0.10754786 -0.057837274 17
-24.035156 -0.77633387 6.4435592 25
-1.4037786 -0.043624952 -0.37632293 13
-3.2579486 -0.10067751 0.056894846 25
-1.6089001 -0.049437746 -0.37161914 18
-3.2679882 -0.099845998 0.17134793 11
-1.8602972 -0.056837182 -0.36177388 13
-3.2958844 -0.10012256 0.2884855 13
-2.2923672 -0.069237769 -0.36324087 11
-2.6985092 -0.081032708 0.33148462 78
-2.912818 -0.08695931 -0.35780841 13
-2.7939279 -0.08292193 0.44270959 100
-3.3616734 -0.099772237 -0.29423779 4
-2.7944582 -0.082449548 0.54342401 100
-3.4517767 -0.10124058 -0.18097776 5
-2.7660358 -0.080644652 0.638861 4
-3.3121047 -0.09598694 -0.057837274 12
-24.045444 -0.69265258 6.4456296 25
-1.4039222 -0.038724549 -0.37632293 12
-3.2482855 -0.089031272 0.056720324 23
-1.6149069 -0.043980062 -0.37296885 16
-3.3122404 -0.089626424 0.17365071 11
-1.8683343 -0.05055555 -0.36330032 13
-3.2962136 -0.088617869 0.2884855 12
-2.2846963 -0.06102391 -0.36198941 11
-2.7067132 -0.071823202 0.3324596 78
-2.9170725 -0.076896377 -0.35829589 13
-2.7942004 -0.073168717 0.44270959 106
-3.3679764 -0.088193573 -0.29476073 4
-2.7888412 -0.072541341 0.54227924 100
-3.6018534 -0.093060665 -0.18882816 1
-2.7818854 -0.071388759 0.64246023 4
-3.3224149 -0.084679618 -0.0580118 11
-24.032265 -0.60832232 6.4414883 25
-1.4021176 -0.033777475 -0.37580526 13
-3.2445781 -0.077596381 0.056650508 21
-1.6072578 -0.038157664 -0.37116924 18
-3.4882433 -0.082205571 0.18286185 24
-1.8763503 -0.044218946 -0.3648268 13
-3.2984951 -0.077157892 0.28865981 12
-2.2789707 -0.052910846 -0.36105078 11
-2.7089319 -0.062420875 0.33270332 83
-2.909385 -0.066531122 -0.35732093 13
-2.7964134 -0.063459426 0.44302243 110
-3.3941581 -0.077024139 -0.29702678 2
-2.7753382 -0.062497221 0.53960788 97
-3.654072 -0.081646316 -0.19154961 2
-2.7801692 -0.061634459 0.64201027 4
-3.3366847 -0.073390208 -0.058256131 8
-24.041967 -0.5245983 6.4435592 25
-1.4041584 -0.028922711 -0.37632293 13
-3.2528265 -0.066432685 0.056790132 18
-1.5956912 -0.032310687 -0.36846983 18
-3.5484147 -0.071231283 0.186002 29
-1.8764932 -0.03766894 -0.3648268 14
-3.3087039 -0.06584084 0.28953138 13
-2.2692664 -0.044761129 -0.35948643 11
-2.6952405 -0.052692875 0.33099717 78
-2.913569 -0.056451894 -0.35780841 13
-2.8045182 -0.053850021 0.44427395 117
-4.0477891 -0.077722274 -0.35420093 6
-2.7873168 -0.053033106 0.54189759 100
-3.694273 -0.069643535 -0.19364306 1
-2.76478 -0.051638935 0.6384111 4
-3.4528832 -0.063887283 -0.060280614 4
-24.055241 -0.44088462 6.4466648 25
-1.4158403 -0.024219315 -0.37942874 13
-3.2910271 -0.055721678 0.057453319 11
-1.5996912 -0.026805742 -0.36936963 18
-3.4987068 -0.058627211 0.18338521 14
-1.8707243 -0.031020375 -0.36368197 15
-3.3228586 -0.05452041 0.29075155 15
-2.2852099 -0.037096072 -0.36198941 11
-2.6993775 -0.043347437 0.33148462 78
-2.9097786 -0.046218861 -0.35732093 12
-2.8046813 -0.044549502 0.44427395 113
-4.0599885 -0.06378004 -0.35524681 7
-2.7874849 -0.043302488 0.54189759 100
-6.5142903 -0.10006135 -0.34143981 8
-2.7532527 -0.041810125 0.63571167 4
-3.5810418 -0.054380704 -0.062514521 4
-24.068161 -0.36128524 6.4497709 25
-1.4081894 -0.019171732 -0.37735817 12
-3.3611767 -0.045760591 0.058674991 11
-1.6114626 -0.021657897 -0.37206903 16
-3.3830595 -0.044877455 0.17731424 12
-1.8629688 -0.024387741 -0.3621555 15
-3.3349817 -0.043075431 0.2917974 18
-2.2892706 -0.029568775 -0.36261514 11
-2.7074461 -0.034497444 0.3324596 80
-2.9138856 -0.036619209 -0.35780841 12
-2.7890179 -0.034563158 0.44177097 121
-4.0502253 -0.049484856 -0.35437521 8
-2.7954657 -0.034154452 0.54342401 100
-6.4746442 -0.077977344 -0.33934638 10
-2.7670162 -0.032841571 0.638861 3
-3.653194 -0.042721041 -0.063771099 1
-24.077003 -0.27736357 6.4518414 25
-1.3966547 -0.014382824 -0.37425235 12
-3.4213035 -0.034634788 0.059722137 11
-1.6115284 -0.016032666 -0.37206903 18
-3.3252776 -0.032501906 0.17427875 20
-1.8708922 -0.018286461 -0.36368197 15
-3.3430758 -0.032092374 0.29249465 24
-2.2952859 -0.021633338 -0.36355373 11
-2.7194602 -0.02515658 0.33392206 78
-2.9219358 -0.026519611 -0.35878339 12
-2.7989981 -0.024915297 0.44333532 100
-4.0384197 -0.035243165 -0.35332939 8
-2.7955678 -0.024396835 0.54342401 92
-6.4868603 -0.055478446 -0.3399744 10
-2.7749085 -0.023247905 0.64066058 2
-3.5933318 -0.02947741 -0.06272395 2
-24.043053 -0.19303761 6.442524 25
-1.4198798 -0.0094171222 -0.38046399 14
-3.3714125 -0.022360347 0.058849517 11
-1.6037797 -0.010357284 -0.37026942 18
-3.3073959 -0.02078129 0.17333671 26
-1.8787994 -0.011477116 -0.36520842 15
-3.3411784 -0.019828085 0.29232034 26
-2.2894237 -0.013186376 -0.36261514 11
-2.7036512 -0.015572199 0.33197212 73
-2.9259803 -0.016342081 -0.35927087 13
-2.8069694 -0.015187493 0.44458681 80
-4.0325413 -0.021114826 -0.35280645 8
-2.7936754 -0.014140418 0.54304242 70
-6.5389485 -0.0319562 -0.34269586 8
-24.080315 -0.11347918 5.5594401 9
-3.3714492 -0.015888052 -0.058849517 2
-24.082216 -0.10928517 6.4528766 25
-1.408313 -0.0044246418 -0.37735817 14
-3.2894847 -0.0097600352 0.057418417 11
-1.5999095 -0.0044677742 -0.36936963 16
-3.2854786 -0.009174753 0.17218532 23
-1.8768648 -0.0049140663 -0.3648268 14
-3.3491969 -0.00818366 0.2930176 26
-2.2874806 -0.0051901704 -0.36230227 11
-2.7017047 -0.0056591565 0.33172837 74
-2.9180803 -0.0056024222 -0.35829589 12
-2.801079 -0.0053777914 0.44364822 24
-4.0525141 -0.007073164 -0.35454956 8
-2.7956707 -0.004392257 0.54342401 29
-6.5270367 -0.0091139041 -0.34206784 8
-24.092257 -0.029436121 5.56214 9
-3.3254912 -0.0040631131 -0.058046706 8
-24.07086 -0.025203329 6.4497709 25
-1.4160472 0.00049405015 -0.37942874 14
-3.2715015 0.0011414067 0.057104275 14
-1.6038129 0.00083984417 -0.37026942 16
-3.2635207 0.0022777375 0.17103392 23
-1.8690175 0.0016310909 -0.36330032 13
-3.3571744 0.0035157076 0.29371485 26
-2.3013129 0.0024099858 -0.36449236 11
-2.6977384 0.0032953047 0.33124092 74
-2.9101427 0.0040633376 -0.35732093 12
-3.2040572 0.0050329021 0.50747347 7
-4.0545063 0.0070754164 -0.35472387 8
-3.0881944 0.0053891302 0.60028511 11
-6.5470033 0.012569173 -0.34311455 2
-3.2914903 0.0074672196 -0.057453319 13
-24.097847 0.058880821 6.4570179 25
-1.4102422 0.0051686424 -0.3778758 14
-3.2654788 0.012538908 0.05699956 20
-1.6096464 0.0064613209 -0.37161914 16
-3.2555063 0.013068007 0.17061524 25
-1.8690019 0.0078285933 -0.36330032 14
-3.3551521 0.014639916 0.29354054 28
-2.311167 0.010487385 -0.36605671 11
-2.7135913 0.012787058 0.33319083 70
-2.918051 0.014260491 -0.35829589 11
-3.3442731 0.016343435 0.52968717 9
-4.0245752 0.020369502 -0.35210916 4
-3.1706126 0.016601471 0.6163131 18
-3.3673296 0.018219182 -0.17647687 3
-3.1783457 0.017750623 0.73379034 0
-3.2814491 0.018326441 -0.057278797 21
-24.062746 0.13859248 6.4477 25
-1.3851022 0.009911607 -0.3711465 14
-3.2414234 0.023195192 0.0565807 24
-1.6154623 0.011841982 -0.37296885 16
-3.2674239 0.024521787 0.17124327 35
-1.868963 0.014353078 -0.36330032 14
-3.3391418 0.026225604 0.29214606 28
-2.2992678 0.018058438 -0.36417946 11
-2.7175038 0.021817558 0.33367831 66
-2.921958 0.023969701 -0.35878339 12
-3.3540721 0.028099066 0.53125149 10
-3.3191996 0.028386235 -0.29040295 2
-3.1783926 0.027182035 0.61783957 21
-3.3412871 0.029159099 -0.17511612 12
-3.2289345 0.028741404 0.74548781 1
-3.2813652 0.029780816 -0.057278797 27
-24.096888 0.22290863 6.4570179 25
-1.4082401 0.014993298 -0.37735817 14
-3.2453158 0.035118781 0.056650508 29
-1.6095622 0.017698614 -0.37161914 16
-3.2573261 0.036385838 0.17071991 42
-1.8806803 0.021008069 -0.36559007 12
-3.3469989 0.037971728 0.29284328 28
-2.2932603 0.026417332 -0.36324087 11
-2.7134359 0.031731185 0.33319083 66
-2.9218504 0.034678407 -0.35878339 12
-3.3697486 0.040583331 0.53375447 9
-3.2852051 0.040138565 -0.28743961 5
-3.1723824 0.0387601 0.61669469 23
-3.3211868 0.041157108 -0.1740694 18
-3.2307563 0.040601164 0.74593771 2
-3.2792344 0.041782785 -0.057243895 26
-24.080456 0.31102172 6.4528766 25
-1.4139707 0.020237621 -0.37891111 15
-3.2491724 0.046504159 0.056720324 29
-1.5997479 0.023175828 -0.36936963 16
-3.2451973 0.047580224 0.17009188 40
-1.8845168 0.02795925 -0.36635327 13
-3.3488295 0.050268803 0.2930176 27
-2.2970984 0.0348824 -0.36386663 11
-2.7013993 0.041021876 0.33172837 66
-2.9217114 0.044877436 -0.35878339 12
-3.3597107 0.052192379 0.53219014 9
-3.2691078 0.051354777 -0.28604513 10
-3.172219 0.050386496 0.61669469 26
-3.3110287 0.053170092 -0.17354605 27
-3.2130494 0.052156821 0.74188858 3
-3.2830675 0.053293414 -0.057313703 23
-24.086948 0.39520949 6.454947 25
-1.4196861 0.025276044 -0.38046399 15
-3.2609763 0.058628391 0.056929749 24
-1.6074458 0.029180551 -0.37116924 16
-3.2350166 0.059291206 0.16956852 28
-1.880482 0.034465369 -0.36559007 13
-3.3526177 0.062031899 0.29336622 30
-2.3009129 0.042974398 -0.36449236 11
-2.7091696 0.051073082 0.33270332 66
-2.9175577 0.055510268 -0.35829589 12
-3.3180215 0.063708879 0.52561986 9
-3.2748847 0.06288062 -0.28656808 27
-3.1720238 0.061460149 0.61669469 29
-3.3148167 0.0648048 -0.17375539 28
-3.1836221 0.062795773 0.73514003 2
-3.2848494 0.06536673 -0.057348609 20
-24.116243 0.48410493 6.4632297 25
-1.4041378 0.029902844 -0.37632293 13
-3.2667496 0.07013984 0.057034463 19
-1.6073343 0.034791067 -0.37116924 16
-3.2407799 0.070713952 0.16988252 17
-1.872499 0.040858008 -0.36406359 13
-3.3603482 0.073909678 0.29406345 27
-2.314573 0.05131181 -0.36668244 12
-2.7109594 0.060573306 0.33294708 60
-2.9213157 0.065783575 -0.35878339 12
-3.2901309 0.074664012 0.5212397 9
-3.2547266 0.073860563 -0.28482497 36
-3.179641 0.07271108 0.61822122 24
-3.326551 0.076651424 -0.17438343 20
-3.1911767 0.074090086 0.73693967 3
-3.2885997 0.076925427 -0.057418417 12
-24.11054 0.56819302 6.462194 25
-1.3982311 0.034660436 -0.37476999 14
-3.2624867 0.081441998 0.056964654 13
-1.6110992 0.04049987 -0.37206903 18
-3.228534 0.081722811 0.1692545 4
-1.872345 0.047394052 -0.36406359 13
-3.3441362 0.085232228 0.292669 22
-2.2926579 0.058834046 -0.36324087 11
-2.7206538 0.070292391 0.33416575 64
-2.9210682 0.075979844 -0.35878339 12
-3.2720778 0.085682169 0.51842386 8
-3.2424839 0.085473508 -0.28377908 38
-3.1518917 0.083085448 0.6128785 20
-3.3502216 0.088898621 -0.1756395 12
-3.200639 0.085488401 0.73918921 3
-3.3083007 0.08894182 -0.057767466 10
-24.10841 0.6523574 6.462194 25
-1.4019568 0.03989457 -0.37580526 13
-3.2881682 0.093569256 0.057418417 9
-1.6070522 0.046011914 -0.37116924 16
-3.246197 0.093508899 0.17019655 2
-1.8878582 0.054710783 -0.36711654 13
-3.3716829 0.098302267 0.29510933 6
-2.2944012 0.06729462 -0.36355373 11
-2.706502 0.079381503 0.3324596 60
-2.9287217 0.086410761 -0.35975835 11
-3.3013763 0.097982451 0.52311689 7
-3.2481403 0.096969813 -0.28430203 30
-3.1339047 0.09410686 0.60944396 23
-6.6119075 0.19970149 -0.34667343 6
-3.2022517 0.097277984 0.73963904 1
-3.3099689 0.10055021 -0.057802372 3
-24.12916 0.73721045 6.4684057 25
-1.4037399 0.044850137 -0.37632293 14
-3.3617535 0.10799607 0.058709893 8
-1.5912908 0.051398102 -0.36757001 18
-3.287771 0.10619378 0.17239466 4
-1.8876556 0.061300807 -0.36711654 13
-3.3713191 0.11007113 0.29510933 4
-2.2981009 0.075432286 -0.36417946 11
-2.7042089 0.08923538 0.33221585 64
-2.9244175 0.0970129 -0.35927087 12
-3.3029885 0.1095714 0.52342981 8
-3.2637122 0.1088379 -0.28569651 15
-3.14533 0.10544041 0.61173368 23
-6.5712471 0.22143503 -0.34457996 8
-3.2077355 0.10865334 0.74098879 1
-24.107132 0.82077581 6.4632297 25
-1.4151586 0.05016046 -0.37942874 14
-3.3853583 0.11999442 0.059128754 15
-1.5989017 0.056952268 -0.36936963 18
-3.4450629 0.12331465 0.18066373 10
-1.8776202 0.067536771 -0.36520842 12
-3.3629501 0.12154999 0.29441211 11
-2.3057346 0.083338149 -0.36543098 11
-2.7058818 0.098274514 0.3324596 56
-2.904242 0.10598625 -0.35683349 12
-3.2532346 0.11929001 0.51560807 10
-3.2832227 0.12096415 -0.28743961 6
-3.1567347 0.11630394 0.61402339 21
-6.5545096 0.24263403 -0.34374261 8
-3.2190421 0.1197239 0.74368823 1
-24.131147 0.90593576 6.4704766 25
-1.4130542 0.054778241 -0.37891111 13
-3.4088969 0.13274379 0.059547611 9
-1.6064823 0.062837839 -0.37116924 16
-1.8754241 0.07368581 -0.3648268 14
-3.3505833 0.13222998 0.29336622 31
-2.2995083 0.091151491 -0.36449236 11
-2.7213905 0.10835107 0.33440951 57
-2.9157555 0.1165986 -0.35829589 12
-3.1600306 0.1269201 0.50090319 14
-3.2688451 0.13186197 -0.28621945 7
-3.1720026 0.12795544 0.61707634 16
-6.561605 0.26583409 -0.34416127 8
-3.2224987 0.13111903 0.74458802 1
-24.139418 0.99063373 6.4735823 25
-1.3761717 0.058400407 -0.36907598 14
-1.6062531 0.068445556 -0.37116924 18
-3.5418944 0.15154542 0.18579267 42
-1.8712187 0.080390148 -0.36406359 14
-3.3301709 0.1436518 0.29162312 26
-2.301132 0.099664502 -0.36480519 11
-2.7289286 0.11819284 0.33538446 60
-2.9272296 0.12729332 -0.35975835 11
-3.1516745 0.13760532 0.49965176 23
-4.0048418 0.1755548 -0.35071471 4
-3.2068169 0.14113361 0.62394547 10
-6.5805397 0.29076508 -0.34520799 8
-3.2531457 0.14431028 0.75178647 0
-20.798374 0.92262059 -0.36339399 8
-24.131954 1.0747246 6.4725471 25
-1.4049066 0.064533167 -0.37684056 14
-2.7047141 0.12471236 0.047261119 4
-1.6059915 0.074331954 -0.37116924 16
-3.5413153 0.16452615 0.18579267 12
-1.874849 0.087103702 -0.3648268 13
-3.3415906 0.15583159 0.292669 14
-2.2928774 0.10732696 -0.36355373 11
-2.7126138 0.12744945 0.33343455 56
-2.9386411 0.13858241 -0.36122078 11
-3.1728535 0.15018253 0.5030933 31
-3.8489721 0.18218563 -0.33711842 4
-3.2612138 0.15493613 0.63463074 10
-6.5754952 0.31354207 -0.34499866 8
-3.3110175 0.15845978 0.76528347 0
-20.822817 1.0001928 -0.36388266 4
-24.151009 1.1642762 6.4787588 25
-1.4008138 0.069246426 -0.37580526 15
-2.6922789 0.13355842 0.047051687 3
-1.5998832 0.079646818 -0.36981952 18
-1.878455 0.093843587 -0.36559007 13
-2.2984076 0.11562777 -0.36449236 11
-2.7161176 0.13711707 0.33392206 56
-2.926244 0.14823683 -0.35975835 12
-3.1723099 0.16125703 0.5030933 31
-3.9915795 0.20290269 -0.34966883 6
-3.2959459 0.16811848 0.64149988 14
-6.5903177 0.33730981 -0.34583604 8
-24.157875 1.2406967 5.5846353 4
-20.811213 1.0724559 -0.36374307 4
-24.135221 1.2479742 6.4756527 25
-1.417926 0.075054832 -0.38046399 14
-2.7037773 0.14359179 0.047261119 2
-1.5976495 0.085127331 -0.36936963 16
-2.7004583 0.14388813 0.14172579 1
-1.882037 0.1006097 -0.36635327 12
-2.7336144 0.14661168 0.23950398 1
-2.3058798 0.12407462 -0.36574382 11
-2.7215693 0.14691834 0.33465323 53
-2.921772 0.15772589 -0.35927087 11
-3.1776752 0.17209649 0.5040319 28
-4.0763936 0.2214828 -0.3571642 8
-3.3345459 0.18175963 0.64913225 12
-6.6130314 0.36162111 -0.34709209 2
-24.110819 1.3184545 5.5747371 9
-20.819521 1.1421205 -0.36395246 4
-24.161814 1.329702 6.4839354 25
-1.4041677 0.078996897 -0.37684056 14
-2.6953003 0.15210645 0.047121495 2
-1.6012496 0.090644814 -0.37026942 18
-2.7956815 0.15826017 0.14675003 21
-1.8738526 0.10640507 -0.3648268 12
-3.188632 0.18162195 0.2794213 2
-2.3192608 0.13250878 -0.3679339 11
-2.7309761 0.15651058 0.33587193 54
-2.9212327 0.16741407 -0.35927087 12
-3.1691988 0.18217976 0.50278044 21
-4.0855823 0.23557299 -0.3580358 8
-3.8283014 0.22207902 -0.20097008 1
-24.143278 1.4005468 5.5832853 14
-20.811625 1.2109226 -0.36388266 4
-24.137985 1.4086934 6.4787588 25
-1.3788284 0.082158782 -0.37011126 14
-3.4533124 0.20637448 0.060385328 11
-1.6087211 0.096420676 -0.37206903 16
-3.5846012 0.21547619 0.18820012 44
-1.8793685 0.11297189 -0.36597168 11
-3.325238 0.20046785 0.2914488 8
-2.3030345 0.13924536 -0.36543098 11
-2.730442 0.16556606 0.33587193 51
-2.9364822 0.17857412 -0.36122078 12
-3.1843174 0.19420254 0.50528342 12
-4.0867233 0.24995464 -0.35821009 8
-24.169615 1.4782765 4.7068768 14
-3.7478037 0.22988196 -0.19678321 2
-24.134354 1.4845697 5.5823855 14
-24.156059 1.4943743 6.4849706 25
-1.4151499 0.089529425 -0.37994638 15
-3.518429 0.22259334 0.061537188 27
-1.6005955 0.10154209 -0.37026942 18
-3.5957868 0.22874837 0.18882816 45
-1.8887384 0.12048386 -0.36787975 12
-3.3324342 0.21316212 0.29214606 24
-2.2985656 0.14743315 -0.36480519 11
-2.7258854 0.17484201 0.33538446 52
-2.9318788 0.1885678 -0.36073327 12
-3.2664137 0.21065709 0.51842386 9
-4.0818501 0.26396143 -0.35786149 6
-24.156199 1.5663393 4.7053504 10
-3.7389636 0.24309853 -0.19636452 1
-24.17153 1.5758116 5.5922832 14
-24.146841 1.5784284 6.4839354 25
-1.401336 0.093567796 -0.37632293 15
-3.5195844 0.23562197 0.06157209 33
-1.5846578 0.10636386 -0.36667022 18
-3.573004 0.2404501 0.18767676 42
-1.890265 0.12720792 -0.36826137 12
-3.3435969 0.22559883 0.29319191 39
-2.2940955 0.15518862 -0.36417946 11
-2.7212653 0.18456247 0.33489698 51
-2.9272068 0.19904383 -0.36024579 12
-3.322773 0.22652327 0.52749711 9
-3.9835026 0.27156717 -0.34932023 2
-24.170168 1.6519897 4.709166 10
-3.6663589 0.25123313 -0.19259633 1
-24.146441 1.6588358 5.5877843 14
-3.6627638 0.25227126 -0.064085238 1
-24.179436 1.6695881 6.4942875 25
-1.4106363 0.099135995 -0.37891111 15
-3.5127566 0.24748385 0.061467376 32
-1.601772 0.1131304 -0.37071934 18
-3.5322976 0.25010049 0.18558332 44
-1.8800178 0.13311261 -0.36635327 12
-3.3487513 0.23769128 0.29371485 39
-2.3033919 0.16389665 -0.36574382 11
-2.7225847 0.1942023 0.33514073 50
-2.9264944 0.20925985 -0.36024579 12
-3.3219621 0.2381206 0.52749711 10
-3.6148818 0.25911731 -0.3170726 2
-24.179922 1.7374816 4.7122192 10
-3.705302 0.26689869 -0.19468978 1
-24.152164 1.7439553 5.5904837 14
-3.6738279 0.26592144 -0.064294666 3
-24.171535 1.7538409 6.4937701 12
-1.4160615 0.10448594 -0.38046399 15
-3.5078828 0.25944927 0.061397567 32
-1.5955369 0.11828873 -0.36936963 18
-3.5333946 0.26257625 0.18568799 45
-1.8775837 0.13952841 -0.36597168 11
-3.3459146 0.24923125 0.29354054 38
-2.3067455 0.1722302 -0.36636955 11
-2.7337675 0.20459303 0.33660313 48
-2.9336643 0.22006801 -0.36122078 12
-3.3171709 0.24941966 0.52687138 9
-4.0868087 0.30728909 -0.35855874 5
-24.185457 1.8227549 4.714509 14
-6.6638422 0.50339502 -0.35023224 1
-24.165361 1.8297291 5.5949826 14
-3.6349916 0.27586874 -0.063631475 5
-24.163342 1.838053 6.4932523 25
-1.3810182 0.10674844 -0.3711465 14
-3.4850247 0.26999351 0.061013613 26
-1.5990001 0.12415924 -0.37026942 18
-3.5085618 0.27304903 0.18443193 29
-1.8731706 0.14577694 -0.36520842 12
-3.329133 0.25966978 0.29214606 38
-2.2923446 0.17920358 -0.36417946 11
-2.7369945 0.21444458 0.33709061 48
-2.9368362 0.23061797 -0.36170825 12
-3.3221879 0.26146147 0.52780992 9
-4.0936565 0.32217726 -0.35925597 8
-24.190689 1.9080936 4.7167988 10
-6.6461158 0.52539414 -0.34939486 7
-24.170483 1.9149948 5.597682 9
-23.378843 1.8563745 -0.40936366 6
-24.154848 1.9222405 6.4927344 25
-1.3979673 0.11296893 -0.37580526 14
-3.4681158 0.28086483 0.060734376 22
-1.5946722 0.1294248 -0.36936963 18
-3.4976835 0.28387463 0.18390857 24
-1.8883047 0.15358795 -0.36826137 12
-3.3421073 0.27242139 0.29336622 39
-2.2917051 0.18720433 -0.36417946 11
-2.7322726 0.22367334 0.33660313 47
-2.9360132 0.24086882 -0.36170825 11
-3.3252399 0.27280074 0.52843571 8
-4.1083922 0.33777094 -0.36065045 8
-24.19562 1.9934911 4.7190881 14
-6.6322994 0.54760593 -0.34876686 8
-24.17919 2.0006344 5.6012812 14
-23.376545 1.934222 -0.40943345 6
-24.161819 2.0034432 6.4963579 25
-1.4014145 0.11817241 -0.37684056 14
-3.4572024 0.29152399 0.060559854 23
-1.5903507 0.13438411 -0.36846983 18
-3.4588585 0.29288036 0.1819198 25
-1.8877572 0.16017804 -0.36826137 12
-3.341136 0.28408676 0.29336622 39
-2.2950082 0.19513766 -0.36480519 11
-2.7137144 0.23121603 0.33440951 45
-2.9351985 0.25060239 -0.36170825 12
-3.349854 0.28659466 0.53250295 7
-3.3151302 0.28420672 -0.29110017 6
-24.200615 2.074723 4.7213778 14
-3.3072636 0.28411293 -0.17396474 2
-24.176304 2.0811398 5.602181 9
-3.2833066 0.28321022 -0.057523135 1
-24.189325 2.0907724 6.5056758 25
-1.4144862 0.12400002 -0.38046399 15
-3.4203072 0.30044055 0.059931565 24
-1.589872 0.13993469 -0.36846983 18
-3.4101188 0.30014613 0.17940767 19
-1.8754815 0.16540241 -0.36597168 11
-3.3481138 0.29586643 0.29406345 40
-2.294313 0.20314761 -0.36480519 11
-2.7267323 0.24191469 0.33611569 45
-2.9263964 0.26014429 -0.36073327 12
-3.3606908 0.29875121 0.5343802 5
-3.3082159 0.29466835 -0.29057723 9
-24.220602 2.1616244 4.7267208 14
-3.3161981 0.29654604 -0.1744881 6
-24.172775 2.1658669 5.6030807 9
-3.2962914 0.29534581 -0.057767466 4
-24.205347 2.1730435 6.5118876 25
-1.4044254 0.12805967 -0.3778758 14
-3.3993778 0.30996534 0.059582517 24
-1.5932804 0.14556079 -0.36936963 16
-3.3533599 0.30694953 0.17647687 18
-1.8690276 0.17141022 -0.3648268 12
-3.3391247 0.3068226 0.29336622 40
-2.3014951 0.2114778 -0.36605671 11
-2.723938 0.25077364 0.33587193 43
-2.9294713 0.27021122 -0.36122078 12
-24.335663 2.2489839 3.8708148 13
-3.3091514 0.30639738 -0.29075155 23
-24.303225 2.250258 4.7442751 14
-3.2972982 0.30588108 -0.17354605 15
-24.157698 2.2452941 5.6012812 9
-3.2972312 0.30703568 -0.057802372 17
-24.251472 2.262548 6.5263815 25
-1.3789448 0.13083413 -0.3711465 14
-3.3085799 0.31450033 0.0580118 30
-1.5965897 0.15204695 -0.37026942 18
-3.3044391 0.31527057 0.17396474 25
-1.8762043 0.17900527 -0.36635327 13
-3.3221109 0.31754169 0.29197174 28
-2.2967336 0.21993677 -0.36543098 11
-2.7387633 0.26274818 0.33782184 43
-2.9284122 0.28145757 -0.36122078 12
-24.370106 2.3465748 3.8776982 27
-3.2762744 0.31546941 -0.28796256 6
-24.349121 2.3488433 4.7549605 14
-3.3040514 0.31930724 -0.17396474 15
-24.164415 2.3395388 5.6048803 14
-3.2960279 0.31969386 -0.057802372 14
-24.30798 2.3620026 6.5439806 38
-1.3996279 0.13772784 -0.37684056 14
-3.307462 0.32604763 0.0580118 36
-1.5921706 0.15723579 -0.36936963 16
-3.3172309 0.32817981 0.17469743 25
-1.875568 0.18555342 -0.36635327 13
-3.2952075 0.32658169 0.28970569 43
-2.2821918 0.2265864 -0.36324087 11
-2.7338789 0.27191314 0.33733436 43
-2.9392636 0.29285958 -0.36268318 12
-24.385351 2.4339831 3.8814523 27
-4.1078191 0.41001508 -0.36117339 8
-24.348589 2.4345994 4.7564869 14
-6.6515417 0.66625732 -0.35033691 5
-24.187126 2.4269876 5.6120791 9
-24.34572 2.4514849 6.5564041 25
-1.3952949 0.14222087 -0.37580526 14
-3.3739414 0.34449792 0.059198562 20
-1.5857961 0.16219774 -0.36801991 18
-3.3518288 0.34342143 0.17658153 24
-1.8788149 0.19249949 -0.36711654 13
-3.335669 0.3423548 0.29336622 26
-2.287282 0.23515695 -0.36417946 11
-2.7230399 0.28043777 0.33611569 38
-2.9342742 0.30271041 -0.36219573 12
-24.38064 2.5194902 3.8820782 27
-4.108345 0.42455551 -0.36134771 8
-24.371187 2.5228121 4.7625928 14
-6.6511617 0.68967766 -0.35044158 7
-24.178509 2.5113966 5.6120791 14
-3.3792412 0.35159522 -0.05930328 2
-24.344702 2.5372541 6.558475 25
-1.4043958 0.14810321 -0.37839344 14
-3.3965821 0.35879314 0.059617419 11
-1.5871583 0.16793731 -0.36846983 16
-3.3506095 0.3551203 0.17658153 24
-1.8742269 0.19864327 -0.36635327 13
-3.3384161 0.35441634 0.29371485 26
-2.2962689 0.24418412 -0.36574382 11
-2.7259922 0.29036248 0.33660313 36
-2.9213564 0.31168687 -0.36073327 12
-24.383482 2.605839 3.8839552 27
-3.5957119 0.38427025 -0.31637534 5
-24.389561 2.6107998 4.7679353 14
-6.6487136 0.7128889 -0.35044158 1
-24.169594 2.5957808 5.6120791 14
-3.4217339 0.36809435 -0.060071182 11
-24.339537 2.6226263 6.5595102 25
-1.4096317 0.15363286 -0.37994638 13
-3.3813939 0.36912832 0.059373088 13
-1.5943111 0.17432342 -0.37026942 16
-3.3513992 0.36644503 0.17668621 26
-1.8735222 0.20518394 -0.36635327 12
-3.2084255 0.35194623 0.2823846 6
-2.3071837 0.25349259 -0.36762103 11
-2.7328546 0.30074421 0.33757812 34
-2.9320896 0.32318744 -0.36219573 13
-24.386488 2.687983 3.8858328 27
-3.463645 0.38239044 -0.30487078 14
-24.39591 2.6976407 4.7709885 14
-3.4342594 0.38035876 -0.18108243 5
-24.164257 2.6805687 5.6129789 9
-3.4125447 0.37855747 -0.059931565 20
-24.357588 2.7063122 6.5667572 38
-1.3745316 0.15466429 -0.37062889 14
-3.3662412 0.37877434 0.059128754 21
-1.6014702 0.1804824 -0.37206903 16
-3.3481147 0.37791821 0.17658153 29
-1.878647 0.21238419 -0.36749816 12
-2.739959 0.31024125 0.24124709 11
-2.2984791 0.26025316 -0.36636955 11
-2.7377596 0.31047615 0.33830932 33
-2.9388914 0.33380505 -0.36317068 13
-24.373028 2.772645 3.8852067 27
-3.4207182 0.38974133 -0.30121022 12
-24.386831 2.7785265 4.7709885 14
-3.4369478 0.39219812 -0.18129177 13
-24.221066 2.7682042 5.6282754 14
-3.4032555 0.3895568 -0.059791945 28
-24.336475 2.7900002 6.5636511 25
-1.4047155 0.16277964 -0.37891111 14
-3.3529804 0.38913929 0.058919325 26
-1.5969591 0.18562154 -0.37116924 18
-3.3547106 0.39052689 0.17700022 37
-1.8818325 0.21906693 -0.36826137 12
-2.7646418 0.32232511 0.24351314 5
-2.2877462 0.2671288 -0.36480519 11
-2.7228577 0.31841692 0.33660313 29
-2.9337649 0.34359992 -0.36268318 13
-24.394594 2.8613889 3.8902128 27
-3.3936818 0.39806539 -0.29894418 10
-24.384783 2.8645525 4.7725148 14
-3.4296074 0.4034929 -0.18097776 26
-24.230608 2.8550158 5.6327744 14
-3.3919451 0.40026233 -0.059617419 29
-24.368793 2.8799219 6.5750394 38
-1.4022204 0.16745298 -0.37839344 13
-3.3535872 0.40107775 0.058954231 27
-1.5846919 0.18980475 -0.36846983 18
-3.3414288 0.40080753 0.17637219 31
-1.8888535 0.22656976 -0.36978784 12
-2.7931726 0.33553749 0.24612781 2
-2.2926838 0.27582136 -0.36574382 11
-2.7335544 0.3293443 0.33806559 31
-2.8832777 0.34789309 -0.35658973 15
-24.392302 2.947473 3.8914642 27
-3.3764479 0.40799713 -0.29754972 11
-24.40192 2.9529564 4.7778573 14
-3.4103329 0.41329864 -0.1800357 30
-24.216627 2.93911 5.6318746 14
-3.3845723 0.41137627 -0.059512705 28
-24.389277 2.968703 6.5833216 38
-1.4112145 0.17352518 -0.38098165 13
-3.3442278 0.41180402 0.058814611 29
-1.5801514 0.19485822 -0.36757001 18
-3.3300984 0.41124421 0.17584883 25
-1.8744119 0.23147695 -0.36711654 13
-24.281561 3.0029137 2.1405451 12
-2.2975883 0.28455108 -0.36668244 11
-2.7343583 0.33912796 0.33830932 26
-2.8465865 0.35355216 -0.35220242 16
-24.413229 3.0365019 3.8964701 27
-3.1476305 0.39150026 -0.27750388 16
-24.41095 3.0405385 4.7816739 14
-3.3632855 0.41951546 -0.17762825 32
-24.221689 3.025557 5.6354742 10
-3.3573205 0.41996074 -0.059058942 27
-24.378765 3.0538201 6.5833216 25
-1.4010172 0.1772379 -0.37839344 13
-3.3209474 0.4207114 0.058430657 26
-1.596861 0.20257975 -0.37161914 18
-3.3246801 0.4223626 0.1756395 21
-1.8735925 0.23801851 -0.36711654 13
-2.7551856 0.3505041 0.24299021 2
-2.296581 0.29256898 -0.36668244 11
-2.7410345 0.34967551 0.33928427 24
-2.800046 0.35770091 -0.34659645 31
-24.386806 3.1196911 3.8939674 27
-2.786561 0.35647181 -0.24577919 15
-24.411867 3.1272333 4.7839632 14
-3.1260591 0.40101203 -0.16517229 10
-24.207113 3.1095862 5.6345739 10
-2.8223121 0.36304864 -0.049669549 8
-24.390949 3.1418614 6.5895333 38
-1.3697386 0.17814064 -0.37011126 12
-3.0398631 0.39588806 0.053509079 9
-1.6019412 0.20890866 -0.37296885 16
-2.7667437 0.36081016 0.14622667 6
-1.8746969 0.24481185 -0.36749816 12
-2.7776523 0.36321878 0.24508193 5
-2.2955458 0.30058378 -0.36668244 11
-2.7476702 0.36027437 0.34025922 24
-2.8027167 0.367989 -0.3470839 39
-24.399828 3.2036302 3.8977215 27
-2.771472 0.36437866 -0.24455902 37
-24.400803 3.2124283 4.7839632 14
-2.7919788 0.36806619 -0.14758742 31
-24.219297 3.1971271 5.6399727 15
-2.7576528 0.36403066 -0.048552595 26
-24.357414 3.2196906 6.5833216 38
-1.3978308 0.1867587 -0.3778758 13
-2.7729342 0.37048087 0.048831832 43
-1.5935136 0.21318617 -0.37116924 16
-2.767447 0.37073097 0.14633135 33
-1.8796684 0.25213689 -0.36864299 13
-2.7625449 0.37105587 0.24386176 15
-2.3004098 0.30898342 -0.36762103 11
-2.7346561 0.36779585 0.33879682 21
-2.8860765 0.38867381 -0.35756469 12
-24.421778 3.2932703 3.9030404 27
-3.0169921 0.40737745 -0.26634794 13
-24.393908 3.2938528 4.7847266 14
-2.7669921 0.37411159 -0.14633135 30
-24.23946 3.2816076 5.6471715 15
-2.7781625 0.37661004 -0.04893655 31
-24.372828 3.308327 6.5905685 25
-1.3895481 0.19034438 -0.37580526 13
-2.7518127 0.37744066 0.048482787 27
-1.581176 0.21715644 -0.36846983 16
-2.7700932 0.38093317 0.1465407 36
-1.880767 0.25863624 -0.36902463 12
-2.7672205 0.3810302 0.24438471 40
-2.2954032 0.31647196 -0.3669953 11
-2.7353218 0.37761086 0.33904055 19
-2.9220636 0.40391019 -0.36219573 13
-24.431658 3.3814783 3.906482 27
-3.3373175 0.46190342 -0.29476073 23
-24.401709 3.3816733 4.7885427 14
-24.243298 3.3683453 5.6507702 15
-24.391745 3.3976488 6.5988503 26
-1.4060925 0.19761343 -0.38046399 14
-1.5842677 0.22321787 -0.36936963 16
-1.8701326 0.26382858 -0.36711654 13
-2.7836285 0.3931953 0.24595349 8
-2.3021083 0.32558903 -0.36824676 11
-2.7398837 0.38799167 0.33977175 15
-2.9284976 0.41522247 -0.36317068 12
-24.439262 3.4695172 3.9096105 27
-3.3337121 0.47327009 -0.29458639 20
-24.424744 3.4718044 4.7954121 14
-6.6636147 0.94837213 -0.35274437 7
-24.23525 3.4534998 5.65167 10
-18.58889 2.652209 -0.3277562 3
-24.402685 3.4860504 6.605062 52
-1.3958337 0.20114274 -0.3778758 14
-3.3270376 0.4800255 0.058674991 1
-1.5911937 0.22986153 -0.37116924 16
-24.269802 3.5103047 1.2851619 22
-1.8711433 0.27063605 -0.36749816 11
-24.281004 3.5162451 2.1464715 13
-2.3087776 0.33475679 -0.36949828 12
-2.7502995 0.39926451 0.34123421 11
-2.9191725 0.42429951 -0.36219573 13
-24.427002 3.5548055 3.9096105 27
-3.3280964 0.48433021 -0.29423779 12
-24.426073 3.5590239 4.7980833 18
-6.680027 0.97451007 -0.35379109 7
-24.226904 3.5386393 5.6525698 10
-18.472672 2.7014551 -0.32587135 3
-24.401836 3.5728962 6.6081681 52
-1.3645451 0.20149826 -0.36959362 13
-1.5903816 0.23541449 -0.37116924 16
-24.285063 3.5990946 1.2866273 27
-1.8721294 0.2774533 -0.36787975 13
-24.28632 3.6036189 2.1480405 13
-2.307595 0.34281397 -0.36949828 12
-2.7508526 0.40915388 0.34147793 8
-2.9373081 0.43741143 -0.36463311 12
-24.426167 3.6417985 3.9114878 27
-3.2987967 0.4918313 -0.2917974 4
-24.440687 3.6483176 4.8034258 18
-6.6923876 1.0001837 -0.35462847 7
-24.252951 3.6289542 5.6615682 10
-18.569921 2.7819149 -0.3277562 3
-24.404499 3.6603398 6.612309 26
-1.3982158 0.21146007 -0.37891111 13
-1.5856967 0.24038003 -0.37026942 16
-24.290766 3.6823025 1.2875693 22
-1.8769726 0.28487042 -0.36902463 12
-24.301168 3.6925628 2.1504807 13
-2.2946668 0.34908381 -0.36762103 12
-2.7670698 0.42144379 0.34367159 4
-2.9338791 0.44685 -0.36438939 15
-24.437391 3.7263529 3.9152424 27
-3.3719039 0.51476848 -0.29842126 1
-24.437506 3.7350991 4.8053341 14
-6.6809578 1.0223302 -0.35420978 7
-24.267752 3.7134876 5.6678667 15
-18.477575 2.8307619 -0.32629019 3
-24.415142 3.7447634 6.6185207 52
-1.387961 0.21461953 -0.37632293 13
-1.5733364 0.24384633 -0.36757001 16
-24.29026 3.7646692 1.2881973 18
-1.8721374 0.29049113 -0.36826137 12
-24.300602 3.7749641 2.1515267 13
-2.2974002 0.35729849 -0.36824676 11
-2.7676184 0.43092293 0.34391531 2
-2.9166896 0.45413354 -0.36243945 15
-24.44832 3.8110216 3.9189968 28
-4.1261063 0.64391696 -0.36535689 8
-24.448265 3.8197482 4.8099136 14
-6.6775312 1.0444796 -0.35420978 7
-24.266857 3.7957497 5.6705666 10
-18.440428 2.8876898 -0.32580152 18
-24.425491 3.8292921 6.6247325 39
-1.4025071 0.22163337 -0.38046399 14
-1.5802182 0.25028181 -0.36936963 18
-9.4409351 1.4969854 0.50095981 2
-1.8789201 0.29792768 -0.36978784 11
-24.329273 3.8620815 2.1551871 13
-2.2942519 0.36460504 -0.3679339 11
-23.889866 3.8008783 2.9702001 8
-2.8994033 0.4618147 -0.36048955 16
-24.450476 3.8988223 3.9214995 28
-4.1356378 0.66020042 -0.36640272 8
-24.443216 3.9020393 4.81144 14
-6.666142 1.0653569 -0.35379109 7
-24.251534 3.880121 5.6701164 10
-24.438679 3.9188182 6.6319795 52
-1.3807076 0.22337848 -0.37476999 13
-1.5793349 0.25579634 -0.36936963 18
-9.4691687 1.5353661 0.50273925 8
-1.8603743 0.30198121 -0.36635327 12
-24.334621 3.9544234 2.1569302 13
-2.3065486 0.37523183 -0.37012401 12
-23.91564 3.8906221 2.9750745 8
-2.8703437 0.46746483 -0.35707721 16
-24.440615 3.9847827 3.9221253 28
-4.1215105 0.67270696 -0.36535689 8
-24.452002 3.9954073 4.8160195 18
-6.6937299 1.0949397 -0.35546586 7
-24.265997 3.9737113 5.6768651 15
-24.436293 4.0059776 6.6350856 39
-1.3589538 0.22472966 -0.36907598 12
-1.597612 0.26476899 -0.37386864 16
-9.4299812 1.5645049 0.50095981 12
-1.8651193 0.30943733 -0.36749816 11
-24.320667 4.0393434 2.1569302 13
-2.29743 0.38198498 -0.36887249 12
-23.944298 3.9854219 2.980437 8
-2.8588207 0.47635072 -0.3558585 16
-24.449226 4.0782418 3.9258797 28
-4.1191368 0.68709069 -0.36535689 8
-24.461143 4.0846119 4.8205991 18
-6.6918364 1.1186279 -0.35557052 9
-24.280807 4.0632162 5.6836133 20
-7.2360501 1.2121968 -0.12806576 2
-24.429066 4.096786 6.637156 39
-1.3924484 0.23526506 -0.37839344 15
-9.4089136 1.5913963 0.16656578 4
-1.5870709 0.26871789 -0.37161914 18
-9.3909864 1.5917382 0.49918038 13
-1.873706 0.31758639 -0.36940622 12
-24.318207 4.1262083 2.1579762 13
-2.2960827 0.39000222 -0.36887249 12
-23.918499 4.0669827 2.9789743 8
-2.8473556 0.48466086 -0.3546398 15
-24.452368 4.1665416 3.9286954 28
-4.1127853 0.70079476 -0.36500823 8
-24.440929 4.168982 4.8194537 18
-6.6918287 1.1426542 -0.35577986 9
-24.283764 4.1508975 5.6876621 20
-7.1943254 1.23104 -0.12740256 2
-24.42985 4.1846509 6.6412973 52
-1.3821002 0.23848148 -0.37580526 13
-9.3185692 1.6095966 0.16506486 7
-1.5746018 0.27226403 -0.36891973 18
-9.4286699 1.6320014 0.5014832 13
-1.8725861 0.32412452 -0.36940622 13
-24.335066 4.2165184 2.1607652 13
-2.3005464 0.3990275 -0.36981112 12
-23.915894 4.1524816 2.980437 8
-2.7224331 0.47318226 -0.33928427 15
-24.408485 4.2467933 3.9240026 28
-4.1279802 0.71822059 -0.36657706 8
-24.362404 4.2431502 4.8068604 10
-6.6504149 1.1594868 -0.35379109 11
-24.280647 4.237649 5.690362 15
-9.3922863 1.6409047 -0.16642615 3
-24.39987 4.2672338 6.637156 26
-1.3888696 0.244645 -0.3778758 14
-9.1632261 1.6157244 0.16241211 7
-1.5813183 0.27911335 -0.37071934 18
-9.2695055 1.6377984 0.49331877 10
-1.8675765 0.32997593 -0.36864299 13
-8.840498 1.5635917 0.78544754 1
-2.3049748 0.40808815 -0.37074974 12
-23.928616 4.2407942 2.9838493 8
-2.6249907 0.46569151 -0.32734108 15
-24.29821 4.3150449 3.9086721 13
-4.113678 0.73053545 -0.36553118 8
-24.289455 4.317863 4.7954121 7
-6.6522269 1.183744 -0.35410511 9
-24.258032 4.321012 5.6885624 15
-9.390439 1.6743824 -0.16649596 1
-24.299246 4.3371048 6.613862 13
-1.3785866 0.24730158 -0.37528762 15
-9.1443272 1.6420279 0.16216777 7
-1.5861874 0.28511453 -0.37206903 16
-8.7807531 1.5799054 0.46756947 6
-1.8665307 0.33584157 -0.36864299 12
-8.9178982 1.6061885 0.79276866 4
-2.2997935 0.4146271 -0.37012401 12
-23.926895 4.318058 2.9853115 8
-2.5844452 0.46687749 -0.32246631 15
-24.29425 4.393117 3.9102361 13
-4.1250863 0.74593723 -0.36675134 8
-24.279633 4.3948498 4.796175 7
-6.6131005 1.1982259 -0.35222104 9
-24.215574 4.3919845 5.6818137 10
-7.5572939 1.3720304 -0.13406938 1
-24.236082 4.4044418 6.6004033 13
-1.3549116 0.24793941 -0.36907598 14
-9.1818132 1.6818641 0.16293567 7
-1.5928497 0.29205507 -0.37386864 16
-8.7083941 1.5982882 0.46401063 11
-1.8672781 0.34270939 -0.36902463 12
-8.2714491 1.5195862 0.7357688 10
-2.2983322 0.42265189 -0.37012401 12
-23.95853 4.4101777 2.9911613 8
-2.5574207 0.47122049 -0.3192977 17
-24.317623 4.4850597 3.9164937 27
-4.095027 0.75527287 -0.36431101 8
-24.329786 4.4916878 4.8091502 14
-6.5224605 1.2053348 -0.34761545 6
-24.278664 4.4910197 5.7002597 10
-7.5426273 1.3965801 -0.13389486 2
-24.275646 4.4992247 6.6154151 26
-1.3996155 0.26117238 -0.38149929 14
-8.743432 1.6331294 0.15525661 6
-1.5822428 0.29582274 -0.37161914 18
-8.573472 1.6029322 0.45710227 7
-1.8718596 0.35030878 -0.37016946 12
-8.2308435 1.5418485 0.73263115 11
-2.2871351 0.42885178 -0.36855966 12
-24.013227 4.5069652 2.9999361 8
-2.518692 0.47318083 -0.31466666 17
-24.329794 4.5707822 3.9208739 21
-4.1060719 0.77213913 -0.36553118 9
-24.321674 4.5780401 4.8106766 14
-6.4495187 1.2151524 -0.34395194 2
-24.29348 4.5815134 5.707458 15
-9.0215721 1.7013805 -0.160248 1
-24.317539 4.5904522 6.6309443 26
-1.3797171 0.26244608 -0.37632293 15
-8.7929735 1.6725758 0.15623395 6
-1.5735958 0.29961011 -0.36981952 18
-8.4697275 1.6141543 0.45186871 5
-1.8744824 0.35757697 -0.3709327 13
-8.1921434 1.5642161 0.7296679 9
-2.2934616 0.43791586 -0.36981112 12
-24.278921 4.640234 3.0350344 8
-2.4839635 0.47518978 -0.31052312 18
-24.340853 4.6608768 3.9252541 28
-4.1092219 0.78759253 -0.36605412 8
-24.333355 4.6638436 4.8160195 14
-6.3826857 1.2244916 -0.34060243 2
-24.293463 4.6649895 5.7110572 15
-6.5157237 1.252371 -0.11581416 2
-24.301369 4.6753092 6.6309443 26
-1.3921155 0.26959103 -0.37994638 15
-7.8859935 1.5285971 0.14021264 1
-1.5763665 0.30584356 -0.37071934 18
-7.9327102 1.5405235 0.42350259 5
-1.8713592 0.3634159 -0.37055111 11
-7.9052782 1.53663 0.70456702 8
-2.291919 0.44591892 -0.36981112 12
-24.360003 4.7439222 3.0472214 17
-2.4569602 0.47891971 -0.30735451 17
-24.343824 4.7495975 3.9283829 28
-4.1222315 0.80426723 -0.3674486 8
-24.336195 4.7525244 4.8198357 14
-6.2725239 1.2260725 -0.33495015 2
-24.305716 4.755374 5.7178059 5
-6.4740262 1.2678076 -0.11515098 2
-24.322817 4.7675347 6.6412973 26
-1.379794 0.27220535 -0.37684056 13
-7.8609905 1.5522413 0.13986358 5
-1.5829364 0.3128553 -0.37251896 18
-7.9507961 1.5728579 0.42475864 9
-1.8585235 0.36766046 -0.36826137 12
-7.8392782 1.5522186 0.69916338 6
-2.2980995 0.45545217 -0.37106261 13
-24.35887 4.8320222 3.0491712 17
-2.4377499 0.48401394 -0.30516088 20
-24.334846 4.8360848 3.9296341 28
-4.1076741 0.81632161 -0.36640272 8
-24.331011 4.8397369 4.8221254 15
-6.2016058 1.2347009 -0.3313913 2
-23.321922 4.64748 5.4901557 4
-9.2346668 1.8419154 -0.16436677 3
-24.309816 4.8531656 6.6423321 26
-1.3523194 0.27169314 -0.36959362 14
-7.8221979 1.5729684 0.1392702 7
-1.5856555 0.31914794 -0.37341875 18
-7.8963094 1.5907412 0.42214185 12
-1.8630027 0.3753089 -0.36940622 12
-7.7478766 1.562246 0.69149363 7
-2.2810049 0.460345 -0.36855966 12
-24.166735 4.8816476 3.0272348 4
-2.4282625 0.4909468 -0.3041859 18
-24.182287 4.8935752 3.9077334 6
-4.100894 0.82986492 -0.36605412 9
-24.160034 4.8934612 4.7915959 3
-6.1228757 1.241262 -0.3274138 2
-23.042002 4.6753836 5.4280691 4
-9.2536564 1.8793135 -0.16482052 14
-24.319229 4.9433808 6.649579 26
-1.394894 0.28531569 -0.38149929 16
-7.8460455 1.6062796 0.13979377 6
-1.5768954 0.32311666 -0.37161914 18
-7.7322288 1.5857927 0.41366345 10
-1.8712974 0.38378191 -0.37131432 11
-7.6545501 1.5712519 0.68364966 6
-2.2774489 0.46790743 -0.36824676 13
-23.842331 4.902802 2.9887242 4
-2.4265342 0.49941951 -0.3041859 18
-23.828411 4.9086089 3.8532944 6
-4.1038265 0.84538072 -0.36657706 9
-23.808237 4.9087849 4.7251945 3
-6.0520005 1.2489017 -0.32385492 2
-9.1158342 1.8844799 -0.1624819 7
-24.324528 5.032939 6.6557908 26
-1.3806504 0.28742692 -0.3778758 15
-8.1320801 1.6944356 0.1449946 3
-1.5700347 0.32742557 -0.37026942 19
-7.6797237 1.6029779 0.41115132 13
-1.8737899 0.39111349 -0.37207755 12
-7.8303952 1.6358553 0.69986063 7
